ply
format ascii 1.0
comment VCGLIB generated
element vertex 1663
property float x
property float y
property float z
element face 0
property list uchar int vertex_indices
end_header
2.83789 4.24079 1.105592 
2.87695 4.186702 1.091327 
2.86328 4.141003 1.079554 
2.86914 4.122163 1.07395 
2.86719 4.093194 1.067158 
2.87109 4.074365 1.061552 
2.87305 4.051505 1.055662 
2.88281 4.039115 1.052892 
2.90039 4.039115 1.052892 
2.92383 4.047316 1.054421 
2.9375 4.039115 1.052892 
2.9668 4.057785 1.05753 
2.97852 4.047316 1.054421 
3.00195 4.055696 1.056913 
3.37695 3.789482 0.9868361 
3.35352 3.743774 0.9750646 
3.26758 3.629507 0.9456297 
3.38477 3.741685 0.974448 
3.35547 3.689865 0.9617637 
3.36133 3.679397 0.9586543 
3.33008 3.627408 0.9450147 
3.25 3.521511 0.9180743 
3.25 3.50477 0.9130853 
3.17773 3.411263 0.8889155 
3.17773 3.394684 0.8849036 
3.18164 3.382125 0.8811678 
3.20898 3.396783 0.8855184 
-0.630859 2.07299 0.5314037 
-0.620117 2.067845 0.5303277 
-0.608887 2.061566 0.5284598 
-0.598145 2.054321 0.526762 
-0.585938 2.043946 0.5241296 
-0.575195 2.038706 0.5225739 
-0.371338 1.967093 0.5044612 
-0.355713 1.929669 0.4946983 
-0.336914 1.873585 0.4802924 
-0.318604 1.816537 0.4660565 
-0.300537 1.758269 0.4505481 
-0.296143 1.779113 0.4562938 
-0.287842 1.777023 0.4556702 
-0.280762 1.782253 0.4572277 
-0.267822 1.749019 0.4487083 
-0.264893 1.782253 0.4572277 
-0.258057 1.789498 0.4589245 
-0.251221 1.797782 0.4609343 
-0.244019 1.802927 0.4620103 
-0.23938 1.827962 0.4690004 
-0.231445 1.831017 0.4694528 
-0.226196 1.853866 0.4753404 
-0.219604 1.868356 0.4787349 
-0.212646 1.879866 0.4821603 
-0.205444 1.89024 0.4847927 
-0.197998 1.899575 0.487113 
-0.0120544 1.898535 0.4868008 
-0.0036335 1.911965 0.4898867 
0.00486374 1.90996 0.4897448 
0.0133438 1.907869 0.4891211 
0.0218201 1.90682 0.4888108 
0.0302734 1.90577 0.4885003 
0.0386963 1.902715 0.4880469 
0.0471497 1.901675 0.4877348 
0.0555725 1.900625 0.4874244 
0.0639648 1.899575 0.487113 
0.348633 2.405416 0.617069 
0.356445 2.386577 0.6114653 
0.362793 2.359708 0.6052973 
0.368896 2.330663 0.5980223 
0.373047 2.293155 0.5877791 
0.376465 2.253726 0.5778734 
0.37915 2.210117 0.5667225 
0.381104 2.164493 0.5554304 
0.383789 2.126019 0.5453563 
0.38623 2.088605 0.5355918 
0.38916 2.054321 0.526762 
0.392334 2.025191 0.5190074 
0.395996 1.997187 0.5120456 
0.400146 1.973373 0.5063291 
0.404541 1.952528 0.5005834 
0.408936 1.932809 0.4956314 
0.41333 1.913015 0.4901971 
0.417236 1.89234 0.4854145 
0.421143 1.872536 0.479982 
0.424805 1.851776 0.4747178 
0.428711 1.834072 0.4699061 
0.432861 1.816537 0.4660565 
0.437744 1.802927 0.4620103 
0.442383 1.789498 0.4589245 
0.447754 1.779113 0.4562938 
0.453125 1.769778 0.4539734 
0.459229 1.762458 0.4517933 
0.465088 1.755129 0.4496151 
0.471191 1.747969 0.4483979 
0.477295 1.742739 0.4468414 
0.483887 1.738559 0.4455953 
0.490234 1.733404 0.4445211 
0.496338 1.728174 0.4429636 
0.502441 1.723029 0.4418877 
0.507813 1.7157 0.4397092 
0.511719 1.70227 0.4366235 
0.429688 1.408393 0.3615137 
0.434082 1.402113 0.3596458 
0.430176 1.369929 0.3514378 
0.419922 1.31898 0.3381104 
0.422363 1.308605 0.335477 
0.424316 1.297181 0.3325331 
0.427734 1.288886 0.330525 
0.431396 1.282691 0.3291387 
0.435791 1.279561 0.3282029 
0.440918 1.277461 0.3275821 
0.446289 1.276421 0.327269 
0.451416 1.275371 0.3269586 
0.456787 1.274321 0.3266481 
0.46167 1.272232 0.3260247 
0.466064 1.269091 0.3250906 
0.471436 1.268126 0.3252608 
0.47583 1.264987 0.3243279 
2.78711 4.247688 1.088504 
2.80469 4.245597 1.087878 
2.82422 4.243667 1.088218 
2.8418 4.243667 1.088218 
2.85938 4.241579 1.087602 
2.88477 4.195869 1.07583 
2.86719 4.143881 1.06219 
2.86523 4.114922 1.055396 
2.87891 4.106552 1.052902 
2.87695 4.079512 1.045768 
2.87695 4.054563 1.039262 
2.88867 4.044094 1.036152 
2.9043 4.042173 1.036491 
2.92578 4.046363 1.037733 
2.94727 4.050542 1.038976 
2.97461 4.065032 1.042371 
3 4.073402 1.044866 
3.01563 4.071312 1.044239 
3.06055 4.106552 1.052902 
3.3125 3.695353 0.9479102 
3.27148 3.630974 0.9314901 
3.26367 3.603766 0.923402 
3.20508 3.522818 0.902968 
3.16406 3.458609 0.8875129 
3.15039 3.429479 0.8797534 
3.13281 3.394071 0.8701358 
3.12109 3.364931 0.862378 
3.11719 3.344171 0.8571129 
3.11328 3.325502 0.8524743 
3.11914 3.313113 0.8497036 
3.14453 3.325502 0.8524743 
-0.642578 2.079749 0.5247579 
-0.631348 2.073469 0.5228902 
-0.620605 2.067275 0.5215038 
-0.608887 2.059955 0.5193237 
-0.597656 2.051745 0.5177962 
-0.585449 2.041285 0.5146821 
-0.57373 2.033 0.5126723 
-0.560547 2.018426 0.5087972 
-0.549805 2.010226 0.5072678 
-0.439453 2.125458 0.5365307 
-0.422363 2.088034 0.5267678 
-0.410645 2.076609 0.5238241 
-0.395996 2.048605 0.5168622 
-0.37915 2.007086 0.5063339 
-0.365723 1.983186 0.5001359 
-0.353027 1.961377 0.4945614 
-0.338135 1.926138 0.4859 
-0.326172 1.907383 0.4807788 
-0.312744 1.877289 0.4731934 
-0.30249 1.864899 0.4704198 
-0.293213 1.858704 0.4690334 
-0.283936 1.852425 0.4671655 
-0.272217 1.830625 0.4615892 
-0.264648 1.833765 0.4625232 
-0.25708 1.83786 0.4632886 
-0.249878 1.84519 0.465467 
-0.244385 1.864899 0.4704198 
-0.236084 1.864899 0.4704198 
-0.230591 1.888799 0.4766178 
-0.223755 1.901273 0.4798721 
-0.216553 1.913663 0.4826457 
-0.209106 1.922998 0.484966 
-0.201416 1.931283 0.4869759 
-0.194702 1.949952 0.4916175 
-0.0120697 1.899183 0.4792495 
-0.00363159 1.909483 0.4813996 
0.00486374 1.908433 0.4810893 
0.0133514 1.907383 0.4807788 
0.0218201 1.906343 0.4804657 
0.030304 1.905293 0.4801553 
0.0387573 1.904328 0.4803255 
0.0472412 1.904328 0.4803255 
0.0556946 1.904328 0.4803255 
0.0641479 1.904328 0.4803255 
0.351563 2.424311 0.6117573 
0.359375 2.403551 0.6064922 
0.365234 2.372323 0.5981177 
0.370361 2.339173 0.590077 
0.373291 2.293463 0.5783033 
0.376465 2.251945 0.5677752 
0.37915 2.208421 0.5571049 
0.381592 2.164887 0.5464363 
0.384277 2.127463 0.5366726 
0.386963 2.091174 0.5277019 
0.390137 2.058904 0.5190123 
0.393311 2.027761 0.5111175 
0.396484 1.998801 0.5043241 
0.400391 1.973852 0.4978155 
0.404785 1.953092 0.4925514 
0.408936 1.931283 0.4869759 
0.41333 1.911573 0.4820232 
0.417236 1.890814 0.476759 
0.420898 1.870054 0.4714949 
0.424561 1.849285 0.4662316 
0.427979 1.829575 0.4612788 
0.432129 1.811956 0.4569477 
0.436523 1.797391 0.4530709 
0.441162 1.782901 0.4496754 
0.446533 1.772527 0.4470429 
0.451904 1.763192 0.4447225 
0.45752 1.754822 0.4422312 
0.463379 1.746612 0.4407046 
0.469482 1.740342 0.438835 
0.475586 1.735188 0.4377607 
0.481934 1.729958 0.4362032 
0.488037 1.724813 0.4351273 
0.494141 1.719573 0.4335725 
0.500977 1.716433 0.4326386 
0.506836 1.710333 0.4317311 
0.510254 1.696808 0.4281664 
0.425293 1.392726 0.3513853 
0.427002 1.379201 0.3478196 
0.415527 1.322153 0.3335838 
0.418945 1.314823 0.3314064 
0.421387 1.304448 0.3287731 
0.424072 1.295113 0.3264528 
0.427734 1.287868 0.324755 
0.431641 1.282724 0.3236791 
0.435791 1.278544 0.322433 
0.440918 1.276444 0.3218111 
0.445557 1.273389 0.3213587 
0.450439 1.271299 0.3207352 
0.454834 1.268159 0.3198013 
0.459717 1.266069 0.3191787 
0.464111 1.262929 0.3182448 
0.469482 1.261879 0.3179343 
0.473877 1.258824 0.317481 
2.87891 4.182358 1.055406 
2.86914 4.142928 1.045492 
2.875 4.126179 1.040515 
2.88281 4.10961 1.036501 
2.88867 4.09303 1.032479 
2.88281 4.05762 1.022852 
2.89063 4.04523 1.020081 
2.9082 4.043139 1.019455 
2.92383 4.039121 1.019178 
2.94727 4.04732 1.020707 
2.9668 4.04942 1.021322 
2.99023 4.05779 1.023817 
3.01172 4.061811 1.024103 
3.03516 4.07018 1.026588 
3.04688 4.05971 1.023478 
3.0625 4.05762 1.022852 
3.27344 4.04942 1.021322 
3.30859 4.07018 1.026588 
3.33008 4.076291 1.0275 
3.2793 3.746377 0.9448537 
3.37891 3.802387 0.9587793 
3.33594 3.738009 0.942369 
3.25391 3.626001 0.9145159 
3.22461 3.576103 0.9015028 
3.18945 3.520103 0.8875754 
3.17969 3.491144 0.8807809 
3.16992 3.464104 0.8736479 
3.13281 3.406006 0.8591053 
3.11523 3.370767 0.8504431 
3.10352 3.343718 0.8433118 
3.09961 3.322958 0.8380469 
3.09766 3.304299 0.8334064 
3.09961 3.291739 0.8296706 
3.10938 3.28563 0.8287678 
-0.632813 2.076048 0.5149984 
-0.621094 2.068718 0.5128201 
-0.609375 2.060434 0.5108103 
-0.597656 2.050134 0.5086601 
-0.585449 2.039759 0.5060266 
-0.57373 2.030424 0.5037063 
-0.561523 2.020039 0.5010746 
-0.55127 2.014894 0.4999987 
-0.541016 2.009665 0.4984423 
-0.529297 2.00033 0.4961219 
-0.525391 2.018999 0.5007625 
-0.518066 2.026234 0.5024619 
-0.475098 2.114427 0.5245928 
-0.438721 2.076048 0.5149984 
-0.433105 2.094633 0.5191584 
-0.422363 2.086423 0.5176309 
-0.410156 2.072908 0.5140645 
-0.397461 2.055289 0.5097343 
-0.383057 2.027285 0.5027725 
-0.370361 2.00661 0.4979889 
-0.35791 1.987855 0.4928667 
-0.344727 1.96195 0.4865266 
-0.332764 1.944321 0.4821982 
-0.320313 1.921556 0.4767922 
-0.309814 1.910132 0.4738483 
-0.300049 1.900797 0.4715281 
-0.290283 1.892512 0.4695181 
-0.279541 1.877938 0.4656421 
-0.27124 1.877938 0.4656421 
-0.263184 1.880038 0.4662639 
-0.255615 1.886233 0.4676502 
-0.248657 1.896692 0.4707642 
-0.240601 1.899747 0.4712166 
-0.234009 1.915277 0.4749243 
-0.226685 1.925661 0.4775559 
-0.21936 1.936036 0.4801883 
-0.21167 1.945371 0.4825086 
-0.203735 1.952616 0.4842064 
-0.196533 1.96718 0.4880841 
-0.189575 1.986805 0.4925563 
-0.0121002 1.903852 0.4719804 
-0.00363541 1.910132 0.4738483 
0.00486755 1.908042 0.4732246 
0.0133591 1.906992 0.4729143 
0.0218353 1.905942 0.472604 
0.0303345 1.905942 0.472604 
0.0387878 1.904902 0.4722908 
0.0473022 1.905942 0.472604 
0.0557861 1.905942 0.472604 
0.0643311 1.906992 0.4729143 
0.354492 2.519802 0.6246613 
0.354492 2.443036 0.6054804 
0.362549 2.424366 0.6008418 
0.367432 2.385106 0.5918934 
0.371826 2.345762 0.5824692 
0.373047 2.289678 0.5680633 
0.375977 2.24606 0.5569142 
0.378906 2.204625 0.5468665 
0.381836 2.165281 0.5374414 
0.384766 2.127952 0.5281575 
0.387939 2.094633 0.5191584 
0.390625 2.060434 0.5108103 
0.393799 2.029374 0.503396 
0.397217 2.00033 0.4961219 
0.400879 1.974425 0.489781 
0.404785 1.951566 0.483896 
0.408936 1.929841 0.478802 
0.413086 1.909082 0.4735378 
0.416748 1.887272 0.4679623 
0.42041 1.866513 0.4626982 
0.423828 1.844788 0.4576043 
0.427246 1.824113 0.4528207 
0.431152 1.806409 0.4480099 
0.435303 1.790795 0.4438218 
0.439941 1.776315 0.4404256 
0.444824 1.76489 0.4374816 
0.449951 1.754506 0.43485 
0.455078 1.743166 0.4323877 
0.460693 1.735931 0.4306882 
0.466797 1.729651 0.4288203 
0.472656 1.723456 0.427434 
0.478516 1.717176 0.425566 
0.484863 1.711066 0.4246603 
0.491211 1.706876 0.423416 
0.498779 1.706876 0.423416 
0.506348 1.707926 0.4237264 
0.419434 1.372954 0.3404921 
0.412598 1.33047 0.330134 
0.415039 1.320085 0.3275033 
0.417969 1.31076 0.3251813 
0.420654 1.301425 0.32286 
0.424072 1.294096 0.3206818 
0.427734 1.286936 0.3194656 
0.431641 1.281706 0.317909 
0.435791 1.277526 0.316662 
0.440186 1.273421 0.3158992 
0.44458 1.270281 0.3149653 
0.44873 1.266092 0.3137209 
0.452881 1.261996 0.3129553 
0.457764 1.259897 0.3123336 
0.462158 1.256757 0.3113995 
0.467773 1.256757 0.3113995 
0.473145 1.255717 0.3110874 
0.477783 1.252662 0.310635 
0.560059 1.249607 0.3101817 
0.596191 1.316945 0.3265694 
0.586426 1.282756 0.3182195 
0.600098 1.300376 0.3225496 
0.606445 1.302381 0.3226916 
0.588867 1.251697 0.3108052 
0.615723 1.297236 0.3216157 
0.622559 1.299326 0.3222392 
0.635254 1.31285 0.3258039 
0.641113 1.31285 0.3258039 
0.648926 1.316945 0.3265694 
0.654297 1.315905 0.3262573 
2.88672 4.139536 1.026259 
2.89648 4.125056 1.022862 
2.88281 4.081439 1.011717 
2.87695 4.046369 1.004019 
2.88477 4.033809 1.000283 
2.90039 4.029789 0.9999975 
2.91016 4.01933 0.9968866 
2.91406 4.00066 0.9922478 
2.94922 4.021418 0.997503 
2.97266 4.029619 0.9990325 
2.99609 4.037989 1.001527 
3.02148 4.048289 1.003681 
3.04492 4.05457 1.005549 
3.0625 4.05457 1.005549 
3.08398 4.056658 1.006165 
3.16797 4.02753 0.9984158 
3.23828 4.048289 1.003681 
3.23438 4.021418 0.997503 
3.25586 4.023509 0.9981295 
3.27344 4.023509 0.9981295 
3.25977 3.984081 0.9882259 
3.34961 3.905223 0.9684185 
3.30469 3.772455 0.9353002 
3.24609 3.631488 0.9006627 
3.21289 3.57758 0.8873616 
3.16992 3.5132 0.8709413 
3.16602 3.49052 0.8660147 
3.19531 3.505 0.8694122 
3.1543 3.442723 0.8536266 
3.125 3.395094 0.8421935 
3.09766 3.349384 0.830412 
3.08203 3.318325 0.8230026 
3.07422 3.291456 0.8168348 
3.07227 3.274705 0.8118477 
3.07617 3.264417 0.8097018 
3.08789 3.260226 0.8084505 
-0.646973 2.089967 0.5095689 
-0.634277 2.078617 0.5071084 
-0.622559 2.071297 0.5049285 
-0.610352 2.061962 0.502607 
-0.598145 2.050622 0.5001448 
-0.585938 2.039198 0.4972011 
-0.574219 2.030903 0.4951929 
-0.5625 2.021568 0.4928726 
-0.552246 2.016338 0.491315 
-0.541992 2.011279 0.4907207 
-0.533203 2.012318 0.4910329 
-0.524902 2.015289 0.4910046 
-0.520996 2.036058 0.496267 
-0.513184 2.040238 0.4975132 
-0.474365 2.109676 0.5145227 
-0.463135 2.101307 0.5120322 
-0.450928 2.087952 0.5094287 
-0.442383 2.093021 0.5100223 
-0.432861 2.091972 0.5097109 
-0.422119 2.083772 0.5081826 
-0.410645 2.073387 0.5055509 
-0.398682 2.059872 0.5019846 
-0.385986 2.040238 0.4975132 
-0.374023 2.025673 0.4936363 
-0.362305 2.010228 0.4904093 
-0.350342 1.992524 0.4855986 
-0.338867 1.978044 0.4822013 
-0.326904 1.959375 0.4775607 
-0.316406 1.94899 0.474929 
-0.306152 1.939665 0.4726071 
-0.296387 1.930415 0.4707674 
-0.285889 1.91898 0.4678253 
-0.2771 1.916891 0.4672028 
-0.268555 1.916891 0.4672028 
-0.260498 1.92003 0.4681367 
-0.252686 1.926225 0.469523 
-0.244629 1.929365 0.470457 
-0.237305 1.940705 0.4729193 
-0.229614 1.94899 0.474929 
-0.221802 1.95632 0.4771075 
-0.213867 1.963564 0.4788052 
-0.205811 1.969759 0.4801915 
-0.197876 1.979084 0.4825146 
-0.190186 1.991559 0.4857687 
-0.182861 2.008138 0.4897867 
-0.174805 2.018428 0.4919386 
-0.0379944 1.92526 0.4696932 
-0.0292816 1.91584 0.4668913 
-0.0207214 1.914885 0.4670597 
-0.0121536 1.910696 0.4658154 
-0.00363731 1.909646 0.465505 
0.00487137 1.907556 0.4648823 
0.0133667 1.906515 0.4645692 
0.0218506 1.905466 0.4642588 
0.0303497 1.905466 0.4642588 
0.0388489 1.906515 0.4645692 
0.0473938 1.907556 0.4648823 
0.0559387 1.908606 0.4651928 
0.0645142 1.910696 0.4658154 
0.35791 2.464029 0.6007837 
0.366211 2.445359 0.596145 
0.369385 2.395716 0.5845687 
0.372803 2.350176 0.5737584 
0.371826 2.279613 0.5559551 
0.374512 2.234074 0.5451447 
0.377686 2.196735 0.5358624 
0.381104 2.15949 0.5270591 
0.384766 2.126256 0.5185407 
0.387939 2.094062 0.5103345 
0.391357 2.061962 0.502607 
0.394531 2.030903 0.4951929 
0.397705 2.000894 0.488089 
0.401123 1.973939 0.4814386 
0.404541 1.94899 0.474929 
0.408691 1.926225 0.469523 
0.412354 1.904416 0.4639484 
0.416016 1.882691 0.4588545 
0.419434 1.859926 0.4534474 
0.422852 1.839167 0.4481833 
0.42627 1.818492 0.4433997 
0.429932 1.799823 0.4387591 
0.433838 1.782288 0.4349096 
0.437988 1.767723 0.4310317 
0.442627 1.755249 0.4277774 
0.447266 1.741809 0.4246933 
0.452148 1.731434 0.4220609 
0.457764 1.72314 0.4200528 
0.463379 1.715905 0.4183533 
0.468994 1.70762 0.4163435 
0.474365 1.700375 0.4146457 
0.480469 1.69523 0.4135698 
0.487305 1.69209 0.4126359 
0.496094 1.696185 0.4134014 
0.505859 1.703515 0.4155797 
0.406006 1.327362 0.3237405 
0.409912 1.321167 0.3223542 
0.413086 1.312873 0.320346 
0.416504 1.305553 0.318166 
0.419922 1.298308 0.3164683 
0.423828 1.291073 0.3147698 
0.427734 1.285918 0.3136956 
0.431641 1.280689 0.3121381 
0.435547 1.275544 0.3110622 
0.439697 1.271354 0.3098178 
0.443604 1.266209 0.3087419 
0.447266 1.260979 0.3071844 
0.451416 1.256874 0.3064216 
0.455811 1.252769 0.3056578 
0.460693 1.250679 0.3050343 
0.466309 1.250679 0.3050343 
0.472168 1.251729 0.3053447 
0.478271 1.252769 0.3056578 
0.520508 1.274494 0.3107518 
0.540039 1.308693 0.3191 
0.545898 1.308693 0.3191 
0.55127 1.307643 0.3187895 
0.58252 1.366791 0.3336462 
0.546387 1.269264 0.3091943 
0.600098 1.380137 0.3362515 
0.557129 1.268299 0.3093644 
0.5625 1.267259 0.3090523 
0.581055 1.296218 0.3158457 
0.585938 1.294128 0.3152222 
0.589355 1.288018 0.3143164 
0.609863 1.320118 0.3220438 
0.61084 1.309743 0.3194104 
0.618652 1.313838 0.3201759 
0.624023 1.312873 0.320346 
0.619629 1.291073 0.3147698 
0.626465 1.294128 0.3152222 
0.633301 1.296218 0.3158457 
0.640625 1.299358 0.3167797 
0.647461 1.301448 0.3174022 
0.65332 1.301448 0.3174022 
2.85352 4.088686 0.9965577 
2.84961 4.057626 0.9891386 
2.85352 4.036866 0.9838736 
2.85547 4.014176 0.9789486 
2.86328 3.999696 0.9755515 
2.87109 3.985048 0.9711992 
2.88086 3.974747 0.969045 
2.88672 3.958179 0.9650313 
2.92969 3.993417 0.9736837 
2.95313 3.999696 0.9755515 
2.97656 4.007896 0.9770808 
3 4.016277 0.9795735 
3.01758 4.016277 0.9795735 
3.02148 3.997608 0.9749349 
3.08008 4.049426 0.9876094 
3.09375 4.045237 0.986368 
3.09961 4.030586 0.9820057 
3.20898 4.099146 0.999669 
3.22266 4.092865 0.9978008 
3.25195 4.107346 1.001198 
3.26367 4.099146 0.999669 
3.27344 4.088686 0.9965577 
3.29297 4.090775 0.9971745 
3.22266 3.981028 0.9709131 
3.23438 3.974747 0.969045 
3.19141 3.898159 0.9508176 
3.3418 3.891879 0.9489497 
3.3418 3.87129 0.9446497 
3.30078 3.804821 0.9276129 
3.29883 3.784062 0.9223479 
3.2832 3.744802 0.9133995 
3.23438 3.670124 0.894835 
3.2168 3.632795 0.8855561 
3.30273 3.711653 0.9053636 
3.23633 3.618315 0.8821589 
3.20117 3.560386 0.8685718 
3.16016 3.500197 0.8534029 
3.2207 3.547826 0.864836 
3.16406 3.469139 0.8459935 
3.13477 3.419419 0.833934 
3.10742 3.373879 0.8231176 
3.07422 3.322061 0.810443 
3.06055 3.291001 0.803024 
3.05469 3.270073 0.7968037 
3.05469 3.253503 0.79278 
3.05859 3.241113 0.7900092 
3.06836 3.237092 0.7897231 
-0.647461 2.090361 0.5005749 
-0.635254 2.081111 0.4987352 
-0.623535 2.072826 0.4967252 
-0.611328 2.063491 0.4944051 
-0.599121 2.053107 0.4917733 
-0.586914 2.041767 0.4893112 
-0.575195 2.032432 0.4869908 
-0.563477 2.023097 0.4846695 
-0.552734 2.017952 0.4835935 
-0.542969 2.014812 0.4826597 
-0.53418 2.015862 0.4829711 
-0.525879 2.017952 0.4835935 
-0.518066 2.023097 0.4846695 
-0.509766 2.026237 0.4856035 
-0.502441 2.032432 0.4869908 
-0.495361 2.039677 0.4886875 
-0.488037 2.046996 0.4908676 
-0.480713 2.055206 0.4923951 
-0.472656 2.060351 0.4934711 
-0.470703 2.092451 0.5011984 
-0.459961 2.0853 0.4999795 
-0.450439 2.08425 0.4996691 
-0.441162 2.08425 0.4996691 
-0.431641 2.083201 0.4993587 
-0.421143 2.077971 0.4978012 
-0.4104 2.070736 0.4961028 
-0.399658 2.062442 0.4940946 
-0.387939 2.049011 0.4910078 
-0.376953 2.038627 0.488377 
-0.365967 2.029292 0.4860568 
-0.354492 2.015862 0.4829711 
-0.343506 2.003472 0.4801974 
-0.332275 1.989948 0.4766317 
-0.321777 1.979573 0.4739992 
-0.311279 1.969273 0.4718491 
-0.30127 1.960988 0.4698393 
-0.291016 1.951653 0.4675179 
-0.281982 1.948514 0.466585 
-0.272949 1.946508 0.466442 
-0.264404 1.948514 0.466585 
-0.256104 1.951653 0.4675179 
-0.247803 1.953743 0.4681416 
-0.23999 1.960988 0.4698393 
-0.231934 1.966218 0.4713958 
-0.223755 1.971373 0.47247 
-0.215454 1.977558 0.473859 
-0.207153 1.981663 0.4746218 
-0.198853 1.987942 0.4764897 
-0.190796 1.995188 0.4781875 
-0.182373 2.001382 0.4795738 
-0.174927 2.017952 0.4835935 
-0.167603 2.038627 0.488377 
-0.055603 1.939179 0.4642638 
-0.0467834 1.932029 0.4630459 
-0.038147 1.930979 0.4627355 
-0.0294037 1.922694 0.4607255 
-0.0207672 1.917539 0.4596513 
-0.0121841 1.913359 0.4584042 
-0.00364304 1.911259 0.4577835 
0.004879 1.909169 0.4571598 
0.013382 1.907164 0.4570179 
0.0218811 1.906114 0.4567075 
0.0303955 1.907164 0.4570179 
0.0389099 1.908204 0.45733 
0.0474854 1.910219 0.4574713 
0.0560913 1.912309 0.4580939 
0.0646973 1.915449 0.4590279 
0.364746 2.509793 0.6016399 
0.369873 2.470364 0.5917361 
0.370605 2.402145 0.5759982 
0.373535 2.352501 0.564423 
0.368164 2.255142 0.5409331 
0.371826 2.217813 0.5316492 
0.375977 2.184664 0.5236125 
0.380371 2.153605 0.5161971 
0.384277 2.122545 0.5087829 
0.387939 2.092451 0.5011984 
0.391357 2.060351 0.4934711 
0.394531 2.029292 0.4860568 
0.397461 1.998242 0.4786398 
0.400635 1.970323 0.4721596 
0.404297 1.945459 0.4661317 
0.407715 1.920594 0.4601037 
0.411377 1.897914 0.4551783 
0.415039 1.876105 0.4496037 
0.417969 1.85229 0.4438862 
0.421387 1.831531 0.4386221 
0.424561 1.809806 0.4335281 
0.427979 1.791137 0.4288866 
0.431641 1.772562 0.4247248 
0.435547 1.757032 0.421018 
0.439941 1.742542 0.4176227 
0.444092 1.729113 0.4145368 
0.448486 1.716638 0.4112826 
0.453857 1.707388 0.4094428 
0.459229 1.699103 0.4074329 
0.464844 1.691773 0.4052546 
0.470215 1.684538 0.4035552 
0.47583 1.677294 0.4018584 
0.483154 1.677294 0.4018584 
0.487061 1.663864 0.3987727 
0.398193 1.340825 0.3213668 
0.396484 1.31491 0.3150284 
0.402344 1.31491 0.3150284 
0.407715 1.312821 0.3144059 
0.411865 1.307675 0.31333 
0.415527 1.301481 0.3119427 
0.419434 1.295201 0.3100747 
0.42334 1.289091 0.309169 
0.427246 1.283861 0.3076125 
0.431396 1.278706 0.3065383 
0.435303 1.273476 0.3049808 
0.438965 1.268331 0.3039049 
0.442383 1.262136 0.3025185 
0.445801 1.255857 0.3006506 
0.449951 1.250796 0.3000553 
0.454346 1.247656 0.2991213 
0.459473 1.246607 0.2988109 
0.465332 1.247656 0.2991213 
0.472656 1.251836 0.3003684 
0.479736 1.256906 0.3009611 
0.490723 1.270421 0.3045284 
0.500488 1.280806 0.3071591 
0.510254 1.290141 0.3094804 
0.519043 1.299391 0.3113201 
0.527344 1.305586 0.3127065 
0.534668 1.308725 0.3136404 
0.541016 1.309765 0.3139525 
0.547363 1.310815 0.314263 
0.553223 1.310815 0.314263 
0.559082 1.310815 0.314263 
0.591309 1.372839 0.3286136 
0.599121 1.375979 0.3295475 
0.601563 1.367694 0.3275376 
0.57959 1.304536 0.312396 
0.583008 1.299391 0.3113201 
0.587891 1.297291 0.3106983 
0.591797 1.293111 0.3094521 
0.611816 1.323205 0.3170366 
0.61377 1.31491 0.3150284 
0.619629 1.31491 0.3150284 
0.625 1.31387 0.3147163 
0.620605 1.293111 0.3094521 
0.627441 1.295201 0.3100747 
0.634277 1.297291 0.3106983 
0.640625 1.298341 0.3110087 
0.647461 1.300431 0.3116323 
0.65332 1.300431 0.3116323 
0.658691 1.300431 0.3116323 
2.82617 4.071144 0.9758493 
2.8418 4.069053 0.975223 
2.83594 4.035904 0.967187 
2.83398 4.006775 0.9594374 
2.82617 3.969606 0.9511154 
2.83398 3.955127 0.9477185 
2.84766 3.950936 0.9464672 
2.85938 3.942735 0.9449378 
2.87695 3.940646 0.9443211 
2.90625 3.957215 0.9483349 
2.93359 3.971695 0.9517322 
2.9707 3.998566 0.9579099 
2.99023 3.998566 0.9579099 
2.99609 3.984087 0.9545127 
3.01172 3.980075 0.9542248 
3.0332 3.986184 0.9551275 
3.0625 4.000664 0.9585247 
3.07813 3.998566 0.9579099 
3.09375 3.994555 0.957622 
3.09766 3.977807 0.9526448 
3.10938 3.969606 0.9511154 
3.125 3.965585 0.9508294 
3.125 3.942735 0.9449378 
3.125 3.924066 0.9402992 
3.19922 3.992464 0.9569955 
3.29102 4.083533 0.9786202 
3.14844 3.886738 0.9310201 
3.16211 3.882547 0.9297689 
3.17383 3.876437 0.9288661 
3.20508 3.893018 0.9328882 
3.32422 3.868237 0.9273369 
3.27734 3.793739 0.9097358 
3.25195 3.650672 0.8744735 
3.21484 3.592742 0.8608864 
3.16406 3.518245 0.8432852 
3.1543 3.489285 0.8364909 
3.19922 3.520334 0.8439019 
3.15625 3.458056 0.8281165 
3.11133 3.391756 0.8120348 
3.08398 3.346218 0.8012285 
3.06055 3.304868 0.7916633 
3.04688 3.273808 0.7842441 
3.04102 3.251129 0.7793177 
3.03906 3.23455 0.7753054 
3.04297 3.224089 0.7721846 
3.05273 3.21798 0.7712818 
-0.647461 2.0898 0.4917492 
-0.63623 2.08159 0.4902216 
-0.624512 2.074355 0.4885232 
-0.612305 2.06502 0.4862019 
-0.600098 2.054636 0.4835712 
-0.588379 2.044345 0.4814194 
-0.576172 2.035011 0.4790981 
-0.564941 2.026726 0.4770882 
-0.554199 2.021571 0.4760139 
-0.544434 2.018431 0.47508 
-0.535645 2.018431 0.47508 
-0.526855 2.019481 0.4753915 
-0.518555 2.023586 0.4761552 
-0.510742 2.026726 0.4770882 
-0.50293 2.032921 0.4784755 
-0.495605 2.03919 0.4803442 
-0.488037 2.045386 0.4817315 
-0.480713 2.053596 0.483259 
-0.4729 2.05979 0.4846454 
-0.465576 2.068075 0.4866554 
-0.458008 2.075395 0.4888354 
-0.448975 2.07636 0.4886651 
-0.439697 2.07636 0.4886651 
-0.430176 2.075395 0.4888354 
-0.420166 2.071215 0.4875892 
-0.410156 2.067025 0.4863449 
-0.399902 2.06188 0.4852689 
-0.38916 2.054636 0.4835712 
-0.378906 2.047485 0.4823523 
-0.368408 2.041206 0.4804855 
-0.357666 2.03187 0.4781641 
-0.347168 2.023586 0.4761552 
-0.336182 2.012236 0.4736937 
-0.325684 2.001946 0.4715419 
-0.315186 1.992611 0.4692206 
-0.304932 1.984327 0.4672117 
-0.294922 1.976032 0.4652036 
-0.2854 1.970887 0.4641266 
-0.276367 1.968797 0.4635041 
-0.267578 1.968797 0.4635041 
-0.258789 1.969847 0.4638145 
-0.250244 1.971937 0.464438 
-0.242065 1.976997 0.4650333 
-0.233643 1.980137 0.4659663 
-0.22522 1.984327 0.4672117 
-0.216675 1.986332 0.4673537 
-0.20813 1.989472 0.4682876 
-0.199585 1.992611 0.4692206 
-0.191162 1.997756 0.4702975 
-0.182739 2.002911 0.4713717 
-0.175171 2.019481 0.4753915 
-0.16687 2.028816 0.4777118 
-0.158569 2.037101 0.4797216 
-0.151001 2.05874 0.4843349 
-0.0646362 1.950127 0.4588625 
-0.0558777 1.947072 0.4584101 
-0.0470276 1.940793 0.4565422 
-0.0382385 1.933642 0.4553244 
-0.02948 1.926397 0.4536266 
-0.0208282 1.921168 0.45207 
-0.0122147 1.917063 0.4513062 
-0.00365067 1.913923 0.4503723 
0.00488663 1.910868 0.4499189 
0.0134125 1.909818 0.4496085 
0.0219269 1.908778 0.4492964 
0.0304565 1.908778 0.4492964 
0.0390015 1.910868 0.4499189 
0.0476379 1.913923 0.4503723 
0.0563049 1.918112 0.4516166 
0.0650024 1.923258 0.4526926 
0.378662 2.524328 0.5941216 
0.362305 2.218122 0.5221745 
0.36792 2.193343 0.5166272 
0.373291 2.168404 0.5101169 
0.378418 2.141524 0.5039487 
0.383057 2.113614 0.4974667 
0.386963 2.084729 0.4911556 
0.390625 2.054636 0.4835712 
0.393799 2.023586 0.4761552 
0.396484 1.992611 0.4692206 
0.399658 1.963652 0.4624282 
0.402832 1.937737 0.4560899 
0.40625 1.912873 0.4500619 
0.409668 1.888103 0.4445128 
0.413086 1.866378 0.4394189 
0.416016 1.842564 0.4337014 
0.419189 1.819874 0.4287776 
0.422363 1.799115 0.4235135 
0.425537 1.77844 0.41873 
0.429199 1.76082 0.4143998 
0.432617 1.743286 0.4105501 
0.436523 1.727756 0.4068435 
0.440674 1.714231 0.4032779 
0.444336 1.698796 0.4000501 
0.449951 1.691552 0.3983523 
0.455566 1.684307 0.3966545 
0.461426 1.678027 0.3947878 
0.466553 1.668787 0.3929463 
0.472168 1.662592 0.3915589 
0.472168 1.637727 0.385532 
0.385498 1.315993 0.3098793 
0.391357 1.315993 0.3098793 
0.395508 1.310838 0.3088051 
0.401123 1.309798 0.308493 
0.406006 1.306658 0.307559 
0.4104 1.302468 0.3063146 
0.414551 1.297323 0.3052387 
0.418701 1.292178 0.3041628 
0.422607 1.285983 0.3027755 
0.426758 1.280828 0.3017013 
0.430664 1.275599 0.3001448 
0.43457 1.270454 0.2990689 
0.437988 1.264258 0.2976815 
0.440918 1.256929 0.2955032 
0.444336 1.249779 0.2942853 
0.448242 1.245674 0.2935215 
0.452881 1.242534 0.2925875 
0.458252 1.242534 0.2925875 
0.465088 1.245674 0.2935215 
0.472656 1.250819 0.2945974 
0.480957 1.259029 0.296125 
0.491699 1.271503 0.2993793 
0.501465 1.281878 0.3020127 
0.510742 1.292178 0.3041628 
0.52002 1.300463 0.3061727 
0.527832 1.305608 0.3072486 
0.535645 1.309798 0.308493 
0.54248 1.311803 0.3086349 
0.548828 1.312853 0.3089463 
0.554688 1.312853 0.3089463 
0.560547 1.312853 0.3089463 
0.566406 1.312853 0.3089463 
0.571777 1.311803 0.3086349 
0.576172 1.308748 0.3081825 
0.581055 1.306658 0.307559 
0.584961 1.302468 0.3063146 
0.589844 1.300463 0.3061727 
0.594238 1.297323 0.3052387 
0.599121 1.295233 0.3046151 
0.616699 1.320088 0.3106448 
0.621582 1.318083 0.3105029 
0.615723 1.294183 0.3043047 
0.62207 1.295233 0.3046151 
0.628418 1.296273 0.3049283 
0.634766 1.297323 0.3052387 
0.641113 1.298373 0.3055491 
0.647461 1.299413 0.3058612 
0.65332 1.299413 0.3058612 
0.659668 1.300463 0.3061727 
0.664551 1.299413 0.3058612 
2.81445 4.051352 0.9535575 
2.82227 4.036872 0.9501603 
2.82031 4.007902 0.9433676 
2.80859 3.966553 0.9338025 
2.80859 3.939684 0.9276346 
2.81445 3.925204 0.9242374 
2.82813 3.921014 0.9229863 
2.83008 3.898165 0.9171045 
2.84961 3.902344 0.9183477 
2.89258 3.937593 0.9270082 
2.93359 3.966553 0.9338025 
2.96289 3.983132 0.9378146 
2.98438 3.989243 0.9387274 
2.99219 3.974922 0.9362872 
3.01172 3.977023 0.9369119 
3.03125 3.981034 0.9371997 
3.04492 3.972833 0.9356705 
3.05273 3.962364 0.9325611 
3.05273 3.939684 0.9276346 
3.08984 3.964463 0.933176 
3.11133 3.968644 0.9344291 
3.20117 4.059721 0.9560421 
3.20703 4.043152 0.9520283 
3.2168 4.032852 0.9498743 
3.0625 3.819646 0.8992174 
3.11133 3.856984 0.9084946 
3.12891 3.859075 0.9091212 
3.15234 3.865184 0.9100238 
3.17773 3.877575 0.9128045 
3.20313 3.887865 0.9149504 
3.33203 3.978943 0.9365733 
3.07227 3.465801 0.8158348 
3.23047 3.62511 0.8531991 
3.19531 3.56718 0.8396121 
3.24609 3.606439 0.8485507 
3.2207 3.5609 0.8377441 
3.18945 3.507162 0.8254082 
3.13281 3.428643 0.8075211 
3.09766 3.374732 0.7942103 
3.07031 3.329194 0.7834037 
3.04883 3.289933 0.7744551 
3.03516 3.258876 0.7670462 
3.0293 3.238115 0.7617809 
3.0293 3.221715 0.7587224 
3.03516 3.211415 0.7565682 
3.04297 3.207056 0.7543619 
-0.647949 2.089229 0.4829254 
-0.63623 2.081029 0.481396 
-0.625 2.073784 0.4796993 
-0.613281 2.065499 0.4776894 
-0.601074 2.056165 0.4753682 
-0.589355 2.046914 0.4735284 
-0.577637 2.038629 0.4715185 
-0.566406 2.031394 0.4698201 
-0.556152 2.026155 0.4682643 
-0.546387 2.0231 0.4678119 
-0.536621 2.022059 0.4674988 
-0.52832 2.0231 0.4678119 
-0.519531 2.025115 0.4679522 
-0.51123 2.028255 0.4688862 
-0.503418 2.032435 0.4701322 
-0.495605 2.03758 0.4712081 
-0.488037 2.043775 0.4725954 
-0.480225 2.049885 0.4735012 
-0.472168 2.055124 0.475056 
-0.464844 2.062359 0.4767554 
-0.456787 2.067514 0.4778297 
-0.44751 2.067514 0.4778297 
-0.438477 2.068554 0.4781418 
-0.428955 2.067514 0.4778297 
-0.419189 2.065499 0.4776894 
-0.409668 2.063409 0.4770659 
-0.399902 2.06027 0.4761319 
-0.389893 2.056165 0.4753682 
-0.379883 2.053025 0.4744342 
-0.370117 2.048929 0.4736696 
-0.359863 2.042734 0.4722823 
-0.349609 2.03549 0.4705856 
-0.339111 2.027205 0.4685757 
-0.328369 2.01787 0.4662544 
-0.318115 2.00862 0.4644147 
-0.307861 2.000335 0.4624048 
-0.297607 1.99205 0.4603948 
-0.288086 1.987945 0.4596321 
-0.278809 1.984805 0.4586981 
-0.269775 1.983755 0.4583868 
-0.260986 1.984805 0.4586981 
-0.252197 1.985855 0.4590086 
-0.243652 1.987945 0.4596321 
-0.235107 1.991 0.4600845 
-0.226318 1.99205 0.4603948 
-0.217529 1.99309 0.460708 
-0.20874 1.99414 0.4610185 
-0.200073 1.99623 0.461642 
-0.191528 2.000335 0.4624048 
-0.182983 2.004515 0.4636519 
-0.175293 2.01892 0.4665658 
-0.167236 2.030344 0.4695086 
-0.158569 2.03654 0.4708959 
-0.149902 2.041685 0.4719719 
-0.142212 2.062359 0.4767554 
-0.0739136 1.962126 0.4537727 
-0.0648804 1.95593 0.4523854 
-0.0559998 1.949651 0.4505185 
-0.0471191 1.943456 0.4491311 
-0.0383301 1.937261 0.4477447 
-0.0295715 1.930101 0.4465276 
-0.020874 1.924871 0.4449711 
-0.0122528 1.920766 0.4442073 
-0.00366211 1.917626 0.4432734 
0.00489807 1.914571 0.442821 
0.013443 1.912481 0.4421975 
0.0219879 1.912481 0.4421975 
0.0305328 1.912481 0.4421975 
0.0391235 1.914571 0.442821 
0.0477905 1.918676 0.4435848 
0.0565491 1.924871 0.4449711 
0.0654297 1.933156 0.446981 
0.0748901 1.954881 0.4520749 
0.0842896 1.96936 0.4554712 
0.372559 2.64024 0.6103704 
0.382568 2.627851 0.6075998 
0.386963 2.580222 0.5961666 
0.358154 2.191647 0.5070105 
0.364746 2.172978 0.502369 
0.370605 2.150213 0.4969628 
0.376221 2.127533 0.4920374 
0.381104 2.102669 0.4860094 
0.385498 2.074749 0.4795291 
0.38916 2.044824 0.4729058 
0.39209 2.013765 0.4654906 
0.394775 1.982715 0.4580746 
0.397949 1.953831 0.4517646 
0.400879 1.925921 0.4452815 
0.404053 1.901057 0.4392536 
0.407227 1.876277 0.4337072 
0.4104 1.852547 0.4284703 
0.413574 1.829783 0.4230643 
0.416504 1.807008 0.4176599 
0.419434 1.785283 0.4125659 
0.422607 1.764609 0.4077824 
0.425537 1.744984 0.4033092 
0.428711 1.726399 0.3991492 
0.432129 1.70982 0.3951312 
0.436035 1.694385 0.3919035 
0.439453 1.678855 0.3881958 
0.445801 1.674665 0.3869514 
0.452148 1.67057 0.3861859 
0.458496 1.665415 0.3851117 
0.464111 1.65922 0.3837254 
0.468262 1.647796 0.3807815 
0.383789 1.309821 0.3030351 
0.389648 1.309821 0.3030351 
0.394531 1.30669 0.3020994 
0.399902 1.304591 0.3014786 
0.404541 1.301536 0.3010252 
0.40918 1.297356 0.2997791 
0.413574 1.293251 0.2990154 
0.417725 1.287056 0.297629 
0.421631 1.281911 0.2965522 
0.425537 1.276671 0.2949973 
0.429199 1.270486 0.2936092 
0.433105 1.265331 0.2925351 
0.436523 1.259136 0.2911477 
0.439453 1.251817 0.2889677 
0.442871 1.244699 0.2879918 
0.446777 1.240561 0.286986 
0.45166 1.238461 0.2863642 
0.458008 1.240561 0.286986 
0.465088 1.244699 0.2879918 
0.473389 1.252856 0.2892798 
0.482178 1.261151 0.291288 
0.492432 1.272576 0.2942318 
0.501953 1.282951 0.2968653 
0.511719 1.293251 0.2990154 
0.520508 1.300495 0.3007131 
0.52832 1.30564 0.301789 
0.536133 1.309821 0.3030351 
0.542969 1.311835 0.3031754 
0.549316 1.313925 0.3037989 
0.555664 1.314975 0.3041092 
0.561523 1.314975 0.3041092 
0.567383 1.314975 0.3041092 
0.572754 1.313925 0.3037989 
0.577637 1.310786 0.302865 
0.58252 1.30878 0.3027229 
0.586914 1.30564 0.301789 
0.591797 1.30355 0.3011654 
0.59668 1.301536 0.3010252 
0.601563 1.299445 0.3004017 
0.606445 1.298396 0.3000912 
0.612305 1.298396 0.3000912 
0.618164 1.298396 0.3000912 
0.624023 1.298396 0.3000912 
0.629883 1.298396 0.3000912 
0.635742 1.298396 0.3000912 
0.64209 1.299445 0.3004017 
0.647949 1.299445 0.3004017 
0.653809 1.299445 0.3004017 
0.660156 1.300495 0.3007131 
0.666016 1.300495 0.3007131 
2.79883 4.025439 0.9303547 
2.79492 3.994561 0.9239089 
2.79883 3.973802 0.9186438 
2.79297 3.940651 0.910598 
2.78711 3.909762 0.9041538 
2.79492 3.895283 0.9007567 
2.79688 3.874523 0.8954915 
2.82031 3.880802 0.8973594 
2.83789 3.882891 0.8979762 
2.88477 3.922151 0.9069244 
2.92578 3.955131 0.9139953 
2.95117 3.965421 0.9161509 
2.98047 3.980081 0.9205117 
3.00195 3.986191 0.9214144 
3.01172 3.97589 0.9192605 
3.03125 3.97589 0.9192605 
3.04492 3.96978 0.9183576 
3.05078 3.957221 0.9146217 
3.05078 3.934541 0.9096953 
3.04492 3.903482 0.9022858 
3.04492 3.880802 0.8973594 
3.09961 3.928261 0.9078274 
3.11328 3.924072 0.9065858 
3.11914 3.909762 0.9041538 
3.08008 3.839273 0.8868309 
3.10742 3.851832 0.8905667 
3.13086 3.858113 0.8924347 
3.1543 3.864222 0.8933374 
3.17578 3.872422 0.8948667 
3.20898 3.891091 0.8995053 
3.22461 3.887082 0.8992273 
3.25195 3.901392 0.9016595 
3.31836 3.957221 0.9146217 
3.31641 3.936631 0.9103217 
3.32617 3.926162 0.9072124 
3.22461 3.785703 0.8754504 
3.35352 3.917962 0.9056832 
3.25781 3.653275 0.8442624 
3.24414 3.620297 0.8371916 
3.24219 3.597617 0.8322651 
3.17773 3.510728 0.8118836 
3.14844 3.460999 0.7998257 
3.11328 3.40534 0.7878286 
3.08203 3.35561 0.7757707 
3.05664 3.31217 0.7655792 
3.03906 3.275 0.7572571 
3.02734 3.248131 0.7510891 
3.02148 3.227371 0.745824 
3.02344 3.212892 0.7424269 
3.0293 3.202593 0.7402827 
3.03906 3.198572 0.7399966 
-0.647461 2.085528 0.4731657 
-0.63623 2.079418 0.4722601 
-0.625 2.072173 0.4705622 
-0.613281 2.064938 0.4688637 
-0.602051 2.057608 0.4666854 
-0.590332 2.049409 0.4651563 
-0.579102 2.041208 0.4636268 
-0.568359 2.034929 0.4617589 
-0.557617 2.030824 0.4609962 
-0.547852 2.027684 0.4600622 
-0.538574 2.026644 0.45975 
-0.529297 2.026644 0.45975 
-0.520508 2.027684 0.4600622 
-0.512207 2.029783 0.460683 
-0.503906 2.032923 0.4616169 
-0.495605 2.035969 0.4620721 
-0.487793 2.041208 0.4636268 
-0.479736 2.045303 0.4643924 
-0.47168 2.051413 0.4652981 
-0.463623 2.055603 0.4665425 
-0.455322 2.059708 0.4673062 
-0.446289 2.060749 0.4676185 
-0.437256 2.061798 0.4679298 
-0.427979 2.060749 0.4676185 
-0.418457 2.059708 0.4673062 
-0.408936 2.058659 0.4669959 
-0.399658 2.057608 0.4666854 
-0.389893 2.055603 0.4665425 
-0.380615 2.054553 0.4662321 
-0.371094 2.052463 0.4656084 
-0.361328 2.049409 0.4651563 
-0.351074 2.043213 0.4637688 
-0.34082 2.035969 0.4620721 
-0.330322 2.027684 0.4600622 
-0.319824 2.019399 0.4580522 
-0.309814 2.012154 0.4563546 
-0.299561 2.003954 0.4548253 
-0.290039 1.999859 0.4540608 
-0.280518 1.996719 0.4531269 
-0.271484 1.995669 0.4528154 
-0.262695 1.995669 0.4528154 
-0.253906 1.996719 0.4531269 
-0.245117 1.997759 0.4534389 
-0.236328 1.998809 0.4537494 
-0.227295 1.998809 0.4537494 
-0.218384 1.998809 0.4537494 
-0.209351 1.997759 0.4534389 
-0.200562 1.998809 0.4537494 
-0.191772 2.000899 0.4543728 
-0.18335 2.006044 0.4554487 
-0.175171 2.016344 0.457599 
-0.16687 2.025679 0.4599202 
-0.158325 2.031874 0.4613066 
-0.149658 2.037019 0.4623824 
-0.140503 2.037019 0.4623824 
-0.131104 2.031874 0.4613066 
-0.121643 2.025679 0.4599202 
-0.111755 2.011114 0.4560424 
-0.102478 2.005004 0.4551367 
-0.0831299 1.971939 0.4475795 
-0.0741577 1.966794 0.4465035 
-0.0650024 1.95746 0.4441832 
-0.0560913 1.951265 0.4427959 
-0.0472107 1.94507 0.4414096 
-0.0383911 1.938875 0.4400232 
-0.0296326 1.933645 0.4384658 
-0.0209198 1.927535 0.43756 
-0.0122757 1.92343 0.4367962 
-0.00366974 1.92029 0.4358622 
0.00491333 1.9182 0.4352397 
0.0134811 1.916185 0.4350985 
0.022049 1.916185 0.4350985 
0.0306396 1.91715 0.4349284 
0.0392456 1.91924 0.4355518 
0.0479736 1.92448 0.4371067 
0.0567932 1.931715 0.4388061 
0.065918 1.94611 0.4417216 
0.0753174 1.964694 0.4458818 
0.085022 1.986419 0.4509766 
0.0922852 1.952305 0.443109 
0.116882 2.258095 0.5126476 
0.130005 2.31384 0.5251293 
0.177734 2.551486 0.5794121 
0.220093 2.648506 0.6009825 
0.231689 2.646405 0.6003579 
0.243774 2.648506 0.6009825 
0.255859 2.652685 0.6022257 
0.268799 2.662986 0.6043798 
0.280762 2.665074 0.6049964 
0.29248 2.662986 0.6043798 
0.304199 2.660895 0.6037533 
0.315918 2.658795 0.6031285 
0.328613 2.665074 0.6049964 
0.34082 2.666995 0.6046579 
0.352539 2.665074 0.6049964 
0.364014 2.662986 0.6043798 
0.374756 2.654615 0.6018853 
0.383301 2.630005 0.5972992 
0.39209 2.611336 0.5926606 
0.41333 2.673275 0.6065257 
0.354492 2.167187 0.4919869 
0.361328 2.150692 0.4884493 
0.367676 2.132032 0.483807 
0.373535 2.110392 0.4791936 
0.378418 2.086578 0.4734762 
0.382813 2.059708 0.4673062 
0.386475 2.029783 0.460683 
0.389648 1.998809 0.4537494 
0.392334 1.967834 0.4468157 
0.39502 1.938875 0.4400232 
0.397949 1.910955 0.433542 
0.401123 1.88522 0.4281631 
0.404297 1.861406 0.4224465 
0.407227 1.836626 0.4168992 
0.409912 1.811846 0.4113528 
0.412598 1.789082 0.4059459 
0.415283 1.766392 0.4010221 
0.417969 1.744667 0.395928 
0.420898 1.723993 0.3911445 
0.423584 1.703403 0.3868425 
0.426514 1.685783 0.3825124 
0.429932 1.670253 0.3788047 
0.433105 1.652718 0.3749551 
0.440918 1.654809 0.3755787 
0.448975 1.656908 0.3761995 
0.457031 1.658998 0.376823 
0.376465 1.323292 0.3006596 
0.379639 1.313958 0.2983393 
0.383301 1.306713 0.2966416 
0.388428 1.304623 0.296018 
0.393066 1.300518 0.2952552 
0.398193 1.298428 0.2946317 
0.403076 1.295288 0.2936977 
0.407471 1.291183 0.292934 
0.411865 1.286038 0.2918581 
0.415771 1.280893 0.2907821 
0.419922 1.275738 0.289708 
0.42334 1.269553 0.2883199 
0.427246 1.264314 0.2867641 
0.430908 1.258161 0.285618 
0.434326 1.251924 0.2839904 
0.4375 1.244774 0.2827725 
0.441162 1.239586 0.2814563 
0.445801 1.236489 0.2807626 
0.450928 1.235439 0.2804522 
0.457031 1.237529 0.2810749 
0.465088 1.243724 0.2824621 
0.473877 1.252974 0.2843018 
0.483154 1.262308 0.2866221 
0.493164 1.273648 0.2890844 
0.50293 1.284033 0.2917161 
0.512207 1.293283 0.2935557 
0.520996 1.300518 0.2952552 
0.528809 1.305673 0.2963294 
0.536133 1.308803 0.2972651 
0.542969 1.311858 0.2977175 
0.549805 1.313958 0.2983393 
0.556152 1.314998 0.2986515 
0.562012 1.314998 0.2986515 
0.567871 1.314998 0.2986515 
0.573242 1.313958 0.2983393 
0.578613 1.312908 0.298028 
0.583984 1.310818 0.2974054 
0.588867 1.308803 0.2972651 
0.59375 1.306713 0.2966416 
0.598633 1.304623 0.296018 
0.604004 1.303573 0.2957076 
0.609375 1.302533 0.2953955 
0.614258 1.301483 0.295085 
0.620117 1.301483 0.295085 
0.625977 1.301483 0.295085 
0.631836 1.301483 0.295085 
0.637207 1.300518 0.2952552 
0.643066 1.300518 0.2952552 
0.648926 1.300518 0.2952552 
0.654785 1.300518 0.2952552 
0.660645 1.300518 0.2952552 
0.666504 1.300518 0.2952552 
2.7793 3.995517 0.9068739 
2.77344 3.960448 0.8991768 
2.7832 3.949989 0.8960657 
2.77734 3.917008 0.8889852 
2.7793 3.89432 0.8840702 
2.77539 3.86343 0.877616 
2.79297 3.86343 0.877616 
2.82422 3.88595 0.8815758 
2.84961 3.896409 0.8846867 
2.87695 3.90863 0.8865021 
2.91211 3.931488 0.8923823 
2.94336 3.950159 0.8970307 
2.97266 3.966559 0.9000894 
2.99414 3.972839 0.9019574 
3.01758 3.977028 0.9031987 
3.03711 3.981038 0.9034767 
3.04102 3.964468 0.8994626 
3.05273 3.956259 0.8979353 
3.09375 3.987149 0.9043894 
3.05273 3.910728 0.8871171 
3.05273 3.88804 0.8822022 
3.05078 3.86326 0.876651 
3.04883 3.84058 0.8717245 
3.08984 3.84686 0.8735924 
3.19336 3.890129 0.8828188 
3.21875 3.900429 0.8849729 
3.23047 3.89223 0.8834438 
3.24219 3.88612 0.8825408 
3.27344 3.902519 0.8855897 
3.28516 3.89432 0.8840702 
3.30859 3.861339 0.8769896 
3.30469 3.83849 0.8710981 
3.16992 3.588453 0.8140397 
3.42969 3.861339 0.8769896 
3.21094 3.596823 0.816534 
3.18359 3.549194 0.805101 
3.17578 3.522493 0.7998882 
3.14648 3.472765 0.7878401 
3.12695 3.433676 0.7798569 
3.0957 3.383956 0.7677973 
3.06836 3.338418 0.7569908 
3.04297 3.293048 0.7471397 
3.0293 3.262158 0.7406855 
3.01953 3.237219 0.7341772 
3.01758 3.218718 0.7304939 
3.01953 3.206329 0.7277233 
3.02734 3.198128 0.7261939 
3.03711 3.195858 0.724604 
-0.63623 2.076757 0.4628125 
-0.624023 2.068472 0.4608026 
-0.613281 2.063327 0.4597266 
-0.602051 2.057047 0.4578587 
-0.591309 2.050852 0.4564724 
-0.580566 2.045707 0.4553966 
-0.569824 2.039597 0.4544908 
-0.55957 2.035408 0.4532464 
-0.549805 2.032352 0.452793 
-0.540039 2.031312 0.4524809 
-0.530762 2.030262 0.4521705 
-0.521973 2.030262 0.4521705 
-0.513184 2.031312 0.4524809 
-0.504395 2.033402 0.4531035 
-0.49585 2.035408 0.4532464 
-0.487549 2.038548 0.4541804 
-0.479492 2.042653 0.4549432 
-0.470947 2.046747 0.4557087 
-0.462891 2.050852 0.4564724 
-0.454346 2.053992 0.4574064 
-0.445313 2.055042 0.4577168 
-0.436523 2.056082 0.4580289 
-0.427246 2.056082 0.4580289 
-0.417969 2.056082 0.4580289 
-0.408691 2.055042 0.4577168 
-0.399414 2.055042 0.4577168 
-0.389893 2.053992 0.4574064 
-0.380859 2.053992 0.4574064 
-0.371338 2.052943 0.457096 
-0.361816 2.050852 0.4564724 
-0.351807 2.046747 0.4557087 
-0.341797 2.040637 0.4548029 
-0.331543 2.033402 0.4531035 
-0.321045 2.025118 0.4510936 
-0.311035 2.018923 0.4497072 
-0.301025 2.012728 0.4483209 
-0.291504 2.008538 0.4470765 
-0.282227 2.005568 0.4471037 
-0.273193 2.005568 0.4471037 
-0.26416 2.005568 0.4471037 
-0.255371 2.007488 0.4467651 
-0.246338 2.007488 0.4467651 
-0.237305 2.005568 0.4471037 
-0.228149 2.004518 0.4467933 
-0.218994 2.002428 0.4461698 
-0.209839 2.000338 0.4455472 
-0.200684 1.999288 0.4452368 
-0.191895 2.000338 0.4455472 
-0.18335 2.004518 0.4467933 
-0.174927 2.012728 0.4483209 
-0.166626 2.019963 0.4500194 
-0.158081 2.026158 0.4514067 
-0.14917 2.029213 0.4518591 
-0.140015 2.028172 0.451547 
-0.130615 2.023018 0.4504727 
-0.121216 2.016823 0.4490855 
-0.111694 2.008538 0.4470765 
-0.102295 1.999288 0.4452368 
-0.0926514 1.984808 0.4418397 
-0.083313 1.974508 0.4396895 
-0.0741577 1.966308 0.4381602 
-0.0650635 1.958023 0.4361503 
-0.0561523 1.951828 0.434764 
-0.0472717 1.945633 0.4333767 
-0.0384521 1.940488 0.4323007 
-0.0296783 1.935249 0.430746 
-0.0209656 1.929148 0.4298385 
-0.0123062 1.926009 0.4289046 
-0.00367737 1.922953 0.4284512 
0.00492477 1.920854 0.4278303 
0.0135117 1.918764 0.4272068 
0.0220947 1.918764 0.4272068 
0.0307007 1.919814 0.4275182 
0.0393677 1.922953 0.4284512 
0.0480957 1.928099 0.4295281 
0.0569763 1.937348 0.4313667 
0.0662842 1.955933 0.4355278 
0.0758057 1.975558 0.4399999 
0.0856934 1.999288 0.4452368 
0.0924072 1.952878 0.4350745 
0.11853 2.287364 0.5099653 
0.135132 2.402883 0.5352113 
0.14917 2.456538 0.5470704 
0.162354 2.487597 0.5544847 
0.175171 2.512367 0.5600337 
0.189209 2.551372 0.5675316 
0.205933 2.617501 0.582648 
0.217773 2.619601 0.5832727 
0.229858 2.623781 0.5845159 
0.242065 2.62797 0.5857573 
0.253906 2.630061 0.5863838 
0.265869 2.631981 0.5860452 
0.278564 2.640191 0.5875728 
0.29126 2.648561 0.5900671 
0.302979 2.646471 0.5894407 
0.314697 2.64437 0.5888158 
0.325928 2.640361 0.5885378 
0.337402 2.638261 0.587913 
0.349854 2.642282 0.5881992 
0.361084 2.638261 0.587913 
0.371094 2.625711 0.5841755 
0.380127 2.60721 0.5804921 
0.38916 2.590632 0.5764802 
0.401855 2.596912 0.5783479 
0.367432 2.305949 0.5141253 
0.35083 2.142886 0.477926 
0.357422 2.126231 0.4734256 
0.36377 2.106682 0.4694357 
0.369629 2.086972 0.464482 
0.374756 2.064292 0.4595565 
0.379395 2.038548 0.4541804 
0.383057 2.010628 0.4476991 
0.385986 1.979663 0.4407637 
0.388672 1.948688 0.43383 
0.391357 1.918764 0.4272068 
0.394287 1.890929 0.421207 
0.396973 1.865109 0.4153476 
0.400146 1.84033 0.4098013 
0.402588 1.814595 0.4044225 
0.405273 1.79078 0.3987049 
0.407715 1.766 0.3931586 
0.410156 1.743311 0.3882347 
0.412354 1.719581 0.3829978 
0.414307 1.695851 0.3777619 
0.416992 1.676226 0.3732887 
0.419678 1.656676 0.3692989 
0.422607 1.640107 0.3652792 
0.424316 1.618467 0.3606657 
0.435791 1.634962 0.3642032 
0.446533 1.647342 0.3669786 
0.37085 1.34592 0.2996449 
0.373047 1.33248 0.2965609 
0.375244 1.318085 0.2936443 
0.378418 1.308751 0.291324 
0.38208 1.301516 0.2896245 
0.386963 1.29846 0.2891721 
0.391357 1.294271 0.2879278 
0.39624 1.291216 0.2874743 
0.401123 1.288076 0.2865404 
0.405518 1.283016 0.2859461 
0.409912 1.278826 0.2847007 
0.413574 1.272631 0.2833144 
0.41748 1.267528 0.2824787 
0.420898 1.261291 0.2808511 
0.424561 1.255096 0.2794648 
0.428223 1.249951 0.2783889 
0.431641 1.242749 0.2769314 
0.435303 1.237604 0.2758555 
0.439453 1.233456 0.2748515 
0.444092 1.231409 0.2744691 
0.449951 1.232416 0.2745393 
0.456787 1.235514 0.275233 
0.465088 1.242749 0.2769314 
0.474121 1.253049 0.2790825 
0.483887 1.263381 0.2814747 
0.494141 1.274721 0.2839379 
0.503418 1.284056 0.2862582 
0.512695 1.293306 0.2880979 
0.520508 1.29846 0.2891721 
0.52832 1.303606 0.290248 
0.535645 1.306745 0.291182 
0.54248 1.308751 0.291324 
0.548828 1.31084 0.2919475 
0.555664 1.31294 0.2925683 
0.562012 1.31398 0.2928815 
0.567871 1.31398 0.2928815 
0.57373 1.31398 0.2928815 
0.579102 1.31294 0.2925683 
0.584473 1.31084 0.2919475 
0.589844 1.3098 0.2916344 
0.595215 1.308751 0.291324 
0.600586 1.307785 0.2914941 
0.605957 1.306745 0.291182 
0.611328 1.305696 0.2908716 
0.617188 1.305696 0.2908716 
0.623047 1.305696 0.2908716 
0.62793 1.304655 0.2905585 
0.633301 1.303606 0.290248 
0.638672 1.302555 0.2899376 
0.644043 1.301516 0.2896245 
0.649902 1.301516 0.2896245 
0.655273 1.30055 0.2897947 
0.661133 1.30055 0.2897947 
0.666992 1.30055 0.2897947 
2.77344 3.982176 0.8874152 
2.77539 3.959486 0.8824904 
2.82617 4.006786 0.8920012 
2.83008 3.988285 0.8883177 
2.83984 3.977816 0.8852085 
2.79102 3.882897 0.8642629 
2.79883 3.870676 0.8624474 
2.82422 3.882897 0.8642629 
2.83008 3.866487 0.8612062 
2.86133 3.884988 0.8648896 
2.87891 3.885156 0.8658447 
2.91211 3.907677 0.869814 
2.94141 3.922157 0.8732114 
3.07031 3.998576 0.8904736 
3.06445 3.965595 0.8833932 
3.07617 3.959316 0.8815254 
3.05664 3.913957 0.871682 
3.0625 3.897547 0.8686252 
3.06055 3.872767 0.8630738 
3.0332 3.815017 0.8504503 
3.06055 3.829327 0.8528823 
3.08594 3.839618 0.855038 
3.19922 3.852007 0.8578088 
3.21289 3.847998 0.8575308 
3.15625 3.761099 0.8371512 
3.14258 3.723938 0.8288273 
3.24609 3.707529 0.8257704 
3.23633 3.678569 0.818976 
3.21484 3.63722 0.8094109 
3.16797 3.56515 0.7943568 
3.16016 3.538282 0.788189 
3.14258 3.501112 0.7798669 
3.13477 3.474241 0.7736891 
3.10742 3.426782 0.7632211 
3.08203 3.381412 0.7533699 
3.07031 3.352452 0.7465754 
3.04102 3.304984 0.7361094 
3.0293 3.276024 0.729315 
3.01953 3.249154 0.7231471 
3.01367 3.228563 0.7188371 
3.01367 3.212155 0.71579 
3.01758 3.201864 0.7136344 
3.02734 3.195584 0.7117664 
3.03906 3.193485 0.7111418 
-0.624023 2.065811 0.4513562 
