ply
format ascii 1.0
comment pointcloud saved from Realsense Viewer
element vertex 2421
property float32 x
property float32 y
property float32 z
property uchar red
property uchar green
property uchar blue
end_header
169 0 0 
-1.26367 0.499512 -3.54102 
169 0 0 
-1.24805 0.499756 -3.54492 
169 0 0 
-1.23242 0.5 -3.54883 
168 0 0 
-1.21582 0.500488 -3.55078 
168 0 0 
-1.19922 0.500488 -3.55078 
167 0 0 
-1.18262 0.500488 -3.55078 
168 0 0 
-1.16406 0.5 -3.54492 
169 0 0 
-1.14551 0.499023 -3.53906 
171 0 0 
-1.125 0.497559 -3.5293 
174 0 0 
-1.10547 0.496094 -3.51953 
177 0 0 
-1.08594 0.494873 -3.50781 
179 0 0 
-1.06738 0.493896 -3.50195 
180 0 0 
-1.0498 0.493408 -3.5 
181 0 0 
-1.0332 0.493652 -3.5 
182 0 0 
-1.01855 0.494385 -3.50586 
182 0 0 
-1.00391 0.495361 -3.51367 
181 0 0 
-0.990723 0.496826 -3.52344 
180 0 0 
-0.977539 0.498535 -3.53516 
177 0 0 
-0.963867 0.5 -3.54883 
173 0 0 
-0.950195 0.501953 -3.56055 
168 0 0 
-0.937012 0.503906 -3.57422 
160 0 0 
-0.923828 0.505859 -3.58789 
151 0 0 
-0.909668 0.507324 -3.59961 
140 0 0 
-0.89502 0.508789 -3.60938 
130 0 0 
-0.879883 0.509766 -3.61523 
126 0 0 
-0.86377 0.510254 -3.62109 
123 0 0 
-0.847168 0.510742 -3.62305 
121 0 0 
-0.82959 0.510742 -3.62305 
121 0 0 
-0.812012 0.510254 -3.62109 
121 0 0 
-0.794434 0.509766 -3.61719 
122 0 0 
-0.776367 0.509277 -3.61133 
123 0 0 
-0.758301 0.508301 -3.60742 
125 0 0 
-0.739746 0.507813 -3.60156 
127 0 0 
-0.72168 0.506836 -3.5957 
130 0 0 
-0.703125 0.505859 -3.58789 
136 0 0 
-0.684082 0.504395 -3.57813 
143 0 0 
-0.665527 0.50293 -3.56836 
151 0 0 
-0.647461 0.501953 -3.5625 
156 0 0 
-0.629883 0.501465 -3.55664 
161 0 0 
-0.612305 0.500977 -3.55469 
163 0 0 
-0.595703 0.500977 -3.55469 
164 0 0 
-0.57959 0.501953 -3.55859 
164 0 0 
-0.563477 0.502441 -3.56445 
162 0 0 
-0.54834 0.503906 -3.57422 
159 0 0 
-0.532715 0.504883 -3.58398 
155 0 0 
-0.51709 0.506348 -3.5918 
151 0 0 
-0.500977 0.507324 -3.59961 
147 0 0 
-0.484863 0.508301 -3.60547 
143 0 0 
-0.468262 0.508789 -3.60742 
140 0 0 
-0.450928 0.508301 -3.60742 
139 0 0 
-0.43335 0.507813 -3.60352 
144 0 0 
-0.415771 0.507324 -3.59766 
144 0 0 
-0.397949 0.505859 -3.58984 
149 0 0 
-0.380127 0.504883 -3.58203 
154 0 0 
-0.362305 0.503906 -3.57422 
158 0 0 
-0.344971 0.50293 -3.56836 
162 0 0 
-0.327881 0.50293 -3.56641 
165 0 0 
-0.311035 0.50293 -3.56836 
165 0 0 
-0.294434 0.503906 -3.57227 
163 0 0 
-0.27832 0.504883 -3.58203 
158 0 0 
-0.262207 0.506348 -3.5918 
151 0 0 
-0.245972 0.508301 -3.60352 
140 0 0 
-0.229614 0.509277 -3.61328 
132 0 0 
-0.212891 0.510742 -3.62305 
127 0 0 
-0.196045 0.51123 -3.62695 
124 0 0 
-0.179077 0.511719 -3.63086 
122 0 0 
-0.162231 0.512695 -3.63672 
120 0 0 
-0.145386 0.51416 -3.64844 
117 0 0 
-0.128784 0.516602 -3.66602 
113 0 0 
-0.112122 0.52002 -3.6875 
110 0 0 
-0.0953979 0.523926 -3.71484 
105 0 0 
-0.0783691 0.527832 -3.74414 
101 0 0 
-0.0611267 0.531738 -3.77148 
96 0 0 
-0.0435791 0.535156 -3.79492 
92 0 0 
-0.0257568 0.537598 -3.81445 
88 0 0 
-0.00774384 0.540039 -3.83203 
82 0 0 
0.0104141 0.541992 -3.84375 
78 0 0 
0.028595 0.541992 -3.84375 
76 0 0 
0.0467834 0.541992 -3.8457 
74 0 0 
0.0649414 0.541992 -3.84375 
72 0 0 
0.0830688 0.541504 -3.8418 
72 0 0 
0.101135 0.541016 -3.83594 
71 0 0 
0.119202 0.540527 -3.83398 
71 0 0 
0.137207 0.540039 -3.83203 
71 0 0 
0.155273 0.540039 -3.83008 
70 0 0 
0.173462 0.540039 -3.83008 
71 0 0 
0.191772 0.540527 -3.83398 
72 0 0 
0.210571 0.54248 -3.84766 
72 0 0 
0.229248 0.543457 -3.85352 
73 0 0 
0.247925 0.544434 -3.86133 
74 0 0 
0.266846 0.545898 -3.87109 
75 0 0 
0.286133 0.547363 -3.88281 
75 0 0 
0.305176 0.548828 -3.89258 
75 0 0 
0.323975 0.549805 -3.89844 
75 0 0 
0.343262 0.550781 -3.90625 
75 0 0 
0.361328 0.550293 -3.90234 
75 0 0 
0.380127 0.550781 -3.90625 
72 0 0 
0.398926 0.55127 -3.91016 
68 0 0 
0.417236 0.550781 -3.9082 
65 0 0 
0.436768 0.552246 -3.91602 
60 0 0 
0.454834 0.551758 -3.91211 
59 0 0 
0.474121 0.552246 -3.91797 
58 0 0 
0.492188 0.551758 -3.91602 
58 0 0 
0.508301 0.549805 -3.89844 
61 0 0 
0.526855 0.549805 -3.89844 
61 0 0 
0.546875 0.55127 -3.91016 
59 0 0 
0.564941 0.550781 -3.90625 
60 0 0 
0.581543 0.548828 -3.89258 
63 0 0 
0.596191 0.54541 -3.86914 
69 0 0 
0.612305 0.543457 -3.85547 
72 0 0 
0.628906 0.54248 -3.84766 
75 0 0 
0.646484 0.541504 -3.8418 
77 0 0 
0.664063 0.541016 -3.83984 
78 0 0 
0.683594 0.541992 -3.8457 
78 0 0 
0.70459 0.544434 -3.86133 
76 0 0 
0.723633 0.544922 -3.86523 
77 0 0 
0.743164 0.545898 -3.87305 
77 0 0 
0.763184 0.546875 -3.88086 
77 0 0 
0.782715 0.547852 -3.88672 
78 0 0 
0.802734 0.549316 -3.89453 
78 0 0 
0.822266 0.549805 -3.89844 
78 0 0 
0.84082 0.549805 -3.89844 
79 0 0 
0.858398 0.549316 -3.89648 
79 0 0 
0.877441 0.549805 -3.89844 
78 0 0 
0.898926 0.55127 -3.91211 
75 0 0 
0.918457 0.552246 -3.91602 
72 0 0 
0.937988 0.552734 -3.91992 
69 0 0 
0.959961 0.554688 -3.93359 
64 0 0 
0.979004 0.555176 -3.93555 
62 0 0 
0.998535 0.555664 -3.93945 
59 0 0 
1.01855 0.556152 -3.94531 
58 0 0 
1.03613 0.555664 -3.94141 
58 0 0 
1.05371 0.555176 -3.9375 
59 0 0 
1.07324 0.555664 -3.94336 
59 0 0 
1.08789 0.553711 -3.92773 
64 0 0 
1.10156 0.550781 -3.9082 
71 0 0 
1.1123 0.547363 -3.88086 
80 0 0 
1.12012 0.54248 -3.84766 
89 0 0 
1.12695 0.536621 -3.80859 
96 0 0 
1.13379 0.53125 -3.76953 
102 0 0 
1.14063 0.526367 -3.73438 
108 0 0 
1.15039 0.522461 -3.70703 
112 0 0 
1.16113 0.519531 -3.68555 
117 0 0 
1.17383 0.517578 -3.67188 
120 0 0 
1.18652 0.515625 -3.6582 
124 0 0 
1.19727 0.513184 -3.63867 
128 0 0 
1.20703 0.509766 -3.61719 
137 0 0 
1.21582 0.506348 -3.5918 
152 0 0 
1.22363 0.502441 -3.56445 
166 0 0 
1.23047 0.498535 -3.53516 
178 0 0 
1.23535 0.493896 -3.50195 
187 0 0 
1.23926 0.48877 -3.46484 
194 0 0 
1.23828 0.482178 -3.41992 
201 0 0 
1.2334 0.474121 -3.36133 
209 0 0 
1.22461 0.464844 -3.29688 
219 0 0 
1.21289 0.454346 -3.22266 
230 0 0 
1.19922 0.443848 -3.14648 
254 6 0 
1.18555 0.43335 -3.07227 
254 6 0 
1.16895 0.422119 -2.99219 
254 29 0 
1.16211 0.414307 -2.93945 
254 44 0 
1.15918 0.408447 -2.89648 
254 57 0 
1.15234 0.401367 -2.84766 
254 72 0 
1.15625 0.398193 -2.82422 
254 81 0 
1.16699 0.396973 -2.81641 
254 87 0 
1.17188 0.394287 -2.79688 
254 96 0 
1.17676 0.391602 -2.77734 
254 106 0 
1.18164 0.388916 -2.75977 
254 116 0 
1.1875 0.386719 -2.74219 
254 125 0 
1.19434 0.384521 -2.72656 
254 135 0 
1.20117 0.382568 -2.71289 
254 145 0 
1.20703 0.380371 -2.69727 
254 156 0 
1.21289 0.378174 -2.68164 
254 163 0 
1.2168 0.375732 -2.66406 
254 169 0 
1.21973 0.372559 -2.64258 
254 174 0 
1.2207 0.369141 -2.61719 
254 181 0 
1.21875 0.364746 -2.58789 
254 189 0 
1.21582 0.360352 -2.55664 
254 197 0 
1.21387 0.356201 -2.52539 
254 205 0 
1.21289 0.352295 -2.49805 
254 213 0 
1.21387 0.349121 -2.47656 
254 219 0 
1.21582 0.346436 -2.45703 
254 223 0 
1.21973 0.344482 -2.44336 
254 226 0 
1.22461 0.342529 -2.42773 
254 229 0 
1.22949 0.340576 -2.41602 
254 232 0 
1.23242 0.338379 -2.39844 
254 235 0 
1.23633 0.336182 -2.38477 
254 238 0 
1.23828 0.33374 -2.36719 
254 243 0 
1.23828 0.330811 -2.3457 
254 250 0 
1.23633 0.327393 -2.32031 
247 254 7 
1.23535 0.324219 -2.30078 
238 254 16 
1.2373 0.321777 -2.28125 
230 254 24 
1.23828 0.319336 -2.26367 
213 254 41 
1.24121 0.317139 -2.25 
213 254 41 
1.24219 0.314941 -2.23242 
207 254 46 
1.24219 0.312256 -2.21484 
202 254 52 
1.24219 0.309814 -2.19727 
195 254 59 
1.24414 0.307617 -2.18164 
187 254 67 
1.24805 0.306152 -2.16992 
181 254 73 
1.25195 0.304443 -2.16016 
185 254 69 
1.25684 0.303223 -2.15039 
150 254 104 
1.26172 0.302002 -2.14063 
139 254 115 
1.26758 0.300781 -2.13281 
133 254 121 
1.27246 0.299561 -2.125 
124 254 129 
1.27637 0.298096 -2.11523 
118 254 136 
1.28027 0.296631 -2.10352 
112 254 142 
1.28516 0.295654 -2.0957 
107 254 147 
1.29102 0.294678 -2.08984 
103 254 151 
1.29785 0.293945 -2.08398 
99 254 155 
1.31445 0.295654 -2.0957 
103 254 151 
1.3125 0.292725 -2.07617 
95 254 159 
1.33008 0.294678 -2.08984 
95 254 159 
1.36035 0.299072 -2.12109 
104 254 150 
1.3457 0.293701 -2.08203 
86 254 168 
1.35059 0.292725 -2.07422 
78 254 175 
1.34766 0.289795 -2.05469 
61 254 193 
1.33398 0.284912 -2.01953 
51 254 203 
1.33496 0.283203 -2.00781 
45 254 209 
1.33984 0.281982 -2 
41 254 213 
1.34277 0.280762 -1.99121 
37 254 217 
1.3457 0.279297 -1.98145 
34 254 220 
1.34766 0.277832 -1.97168 
31 254 223 
1.34961 0.276367 -1.95996 
28 254 225 
1.34961 0.274414 -1.94629 
25 254 229 
1.34766 0.271973 -1.92969 
22 254 232 
1.34473 0.269775 -1.91309 
19 254 235 
1.34082 0.26709 -1.89453 
15 254 239 
1.33789 0.264648 -1.87793 
11 254 243 
1.33008 0.261475 -1.85449 
6 254 248 
1.33105 0.26001 -1.84473 
3 254 251 
1.33105 0.258301 -1.83301 
1 254 253 
1.33203 0.256836 -1.82129 
0 252 254 
1.33203 0.255127 -1.81055 
0 249 254 
1.33398 0.253906 -1.80078 
0 246 254 
1.33398 0.252197 -1.78906 
0 243 254 
1.33496 0.250977 -1.7793 
0 239 254 
1.33594 0.249634 -1.77051 
0 236 254 
1.33691 0.248169 -1.76074 
0 233 254 
1.33887 0.246948 -1.75098 
0 230 254 
1.34082 0.24585 -1.74316 
0 228 254 
1.3418 0.244507 -1.73438 
0 225 254 
1.34375 0.243408 -1.72656 
0 224 254 
1.3457 0.24231 -1.71777 
0 221 254 
1.34668 0.240967 -1.70898 
0 219 254 
1.34766 0.239746 -1.7002 
0 217 254 
1.34766 0.238281 -1.69043 
0 215 254 
1.34766 0.236938 -1.67969 
0 212 254 
1.34668 0.235352 -1.66895 
0 208 254 
1.3457 0.233765 -1.6582 
0 205 254 
1.34375 0.232056 -1.64551 
0 200 254 
1.3418 0.230347 -1.63379 
0 196 254 
1.33984 0.228882 -1.62305 
0 192 254 
1.33984 0.227417 -1.61328 
0 187 254 
1.33984 0.226196 -1.60352 
0 183 254 
1.34082 0.225098 -1.59668 
0 180 254 
1.34375 0.224365 -1.59082 
0 177 254 
1.34668 0.223633 -1.58594 
0 175 254 
1.35059 0.2229 -1.58105 
0 173 254 
1.35254 0.222046 -1.57422 
0 171 254 
1.35352 0.220947 -1.56641 
0 168 254 
1.35352 0.219727 -1.55859 
0 165 254 
1.35156 0.218262 -1.54785 
0 160 254 
1.34961 0.216797 -1.53711 
0 155 254 
1.34668 0.215088 -1.52539 
0 148 254 
1.34375 0.213501 -1.51465 
0 148 254 
1.3418 0.212158 -1.50391 
0 146 254 
1.3418 0.21106 -1.49609 
0 144 254 
1.3418 0.209839 -1.48828 
0 142 254 
1.34277 0.208862 -1.48145 
0 141 254 
1.34277 0.207886 -1.47461 
0 139 254 
1.34473 0.207031 -1.46777 
0 137 254 
1.3457 0.206177 -1.46191 
0 135 254 
1.34863 0.205444 -1.45703 
0 133 254 
1.34961 0.20459 -1.45117 
0 130 254 
1.34961 0.203613 -1.44434 
0 126 254 
1.34961 0.202637 -1.4375 
0 121 254 
1.34863 0.201416 -1.42773 
0 115 254 
1.34277 0.199585 -1.41504 
0 106 254 
1.33887 0.197998 -1.4043 
0 93 254 
1.33594 0.196533 -1.39355 
0 86 254 
1.33496 0.195435 -1.38574 
0 82 254 
1.32617 0.193115 -1.37012 
0 75 254 
1.33105 0.192993 -1.36914 
0 73 254 
1.33398 0.192505 -1.36523 
0 72 254 
1.33691 0.192017 -1.3623 
0 71 254 
1.3418 0.191772 -1.35938 
0 71 254 
1.34766 0.19165 -1.3584 
0 70 254 
1.35352 0.19165 -1.3584 
0 71 254 
1.36035 0.19165 -1.3584 
0 65 254 
1.37012 0.192139 -1.36328 
0 0 0 
-1.2373 0.179565 -1.31738 
0 55 254 
-1.23438 0.180054 -1.32129 
0 55 254 
-1.23145 0.180664 -1.32617 
0 56 254 
-1.22949 0.181152 -1.33008 
0 56 254 
-1.22754 0.181885 -1.33496 
0 58 254 
-1.22656 0.182739 -1.34082 
0 60 254 
-1.22559 0.183594 -1.34668 
0 62 254 
-1.22559 0.184448 -1.35352 
0 64 254 
-1.22461 0.185303 -1.35938 
0 66 254 
-1.22461 0.186279 -1.36719 
0 68 254 
-1.22461 0.187256 -1.37402 
0 70 254 
-1.22363 0.187988 -1.37988 
0 73 254 
-1.22266 0.188965 -1.38672 
0 75 254 
-1.22363 0.190063 -1.39453 
0 80 254 
-1.22363 0.191162 -1.40332 
0 90 254 
-1.22559 0.192383 -1.41211 
0 90 254 
-1.22656 0.193604 -1.4209 
0 97 254 
-1.22754 0.194946 -1.42969 
0 104 254 
-1.22949 0.196289 -1.44043 
0 108 254 
-1.23047 0.197632 -1.4502 
0 113 254 
-1.23242 0.198975 -1.45996 
0 118 254 
-1.23438 0.200439 -1.47168 
0 123 254 
-1.2373 0.202026 -1.48242 
0 128 254 
-1.23926 0.203491 -1.49316 
0 131 254 
-1.24121 0.204956 -1.50391 
0 136 254 
-1.24316 0.206543 -1.51563 
0 140 254 
-1.24414 0.207886 -1.52539 
0 144 254 
-1.24512 0.209229 -1.53516 
0 149 254 
-1.24609 0.210571 -1.5459 
0 153 254 
-1.24512 0.21167 -1.55371 
0 159 254 
-1.24414 0.212769 -1.56152 
0 164 254 
-1.24219 0.213745 -1.56836 
0 169 254 
-1.24023 0.214722 -1.5752 
0 172 254 
-1.23926 0.21582 -1.58398 
0 176 254 
-1.23926 0.217163 -1.59375 
0 180 254 
-1.24023 0.21875 -1.60449 
0 185 254 
-1.24219 0.220337 -1.61719 
0 191 254 
-1.24414 0.222168 -1.62988 
0 196 254 
-1.24707 0.223999 -1.64355 
0 200 254 
-1.25 0.225952 -1.6582 
0 205 254 
-1.25195 0.227783 -1.6709 
0 209 254 
-1.25293 0.22937 -1.68262 
0 213 254 
-1.25391 0.230957 -1.69531 
0 216 254 
-1.25391 0.232422 -1.70508 
0 219 254 
-1.25391 0.233887 -1.71582 
0 222 254 
-1.25293 0.235229 -1.72656 
0 225 254 
-1.25293 0.236938 -1.73828 
0 228 254 
-1.25391 0.238525 -1.75 
0 232 254 
-1.25586 0.240601 -1.76563 
0 237 254 
-1.25977 0.24292 -1.78223 
0 242 254 
-1.26465 0.245483 -1.80176 
0 248 254 
-1.27148 0.248413 -1.82227 
1 254 253 
-1.2793 0.251709 -1.84668 
8 254 246 
-1.28906 0.255371 -1.87402 
16 254 238 
-1.30273 0.259766 -1.90723 
25 254 229 
-1.31934 0.264893 -1.94531 
35 254 219 
-1.33887 0.270752 -1.9873 
44 254 210 
-1.35742 0.276367 -2.02734 
58 254 196 
-1.37207 0.281494 -2.06445 
78 254 176 
-1.3877 0.286621 -2.10352 
100 254 154 
-1.39746 0.290771 -2.13281 
123 254 131 
-1.40332 0.294189 -2.1582 
144 254 109 
-1.40625 0.296875 -2.17773 
160 254 94 
-1.40527 0.298828 -2.19336 
172 254 82 
-1.40039 0.300049 -2.20313 
179 254 75 
-1.39453 0.301025 -2.20898 
183 254 71 
-1.38672 0.301514 -2.21289 
184 254 70 
-1.37793 0.302002 -2.2168 
186 254 68 
-1.37012 0.30249 -2.21875 
186 254 68 
-1.36133 0.302979 -2.22266 
187 254 67 
-1.35254 0.303223 -2.22656 
188 254 65 
-1.34375 0.303711 -2.22852 
190 254 64 
-1.33594 0.304199 -2.23242 
192 254 62 
-1.32715 0.304932 -2.23633 
193 254 60 
-1.31934 0.30542 -2.24219 
196 254 58 
-1.31348 0.306396 -2.24805 
200 254 54 
-1.30859 0.307861 -2.25977 
204 254 50 
-1.30371 0.309326 -2.26953 
209 254 45 
-1.2998 0.311035 -2.28125 
214 254 40 
-1.2959 0.3125 -2.29297 
219 254 35 
-1.29004 0.313721 -2.30273 
224 254 30 
-1.2832 0.314697 -2.31055 
227 254 26 
-1.27539 0.315674 -2.31641 
230 254 24 
-1.26855 0.31665 -2.32227 
233 254 21 
-1.26172 0.317627 -2.33008 
236 254 18 
-1.25488 0.318848 -2.33984 
240 254 14 
-1.25098 0.320557 -2.35156 
245 254 9 
-1.25 0.323242 -2.37109 
252 254 2 
-1.25391 0.326904 -2.39844 
254 244 0 
-1.26074 0.331787 -2.43555 
254 234 0 
-1.27148 0.337891 -2.48047 
254 221 0 
-1.28613 0.344971 -2.53125 
254 205 0 
-1.30176 0.352295 -2.58594 
254 189 0 
-1.31641 0.359619 -2.63867 
254 173 0 
-1.3291 0.366455 -2.68945 
254 156 0 
-1.33789 0.372559 -2.73438 
254 133 0 
-1.3418 0.377441 -2.76953 
254 118 0 
-1.34277 0.381348 -2.79883 
254 105 0 
-1.34082 0.384521 -2.82227 
254 96 0 
-1.33789 0.387695 -2.84375 
254 87 0 
-1.33496 0.390625 -2.86719 
254 78 0 
-1.33008 0.393311 -2.88672 
254 70 0 
-1.3252 0.395752 -2.9043 
254 62 0 
-1.31836 0.397949 -2.91992 
254 56 0 
-1.31152 0.400146 -2.93555 
254 50 0 
-1.30469 0.402344 -2.95117 
254 44 0 
-1.2998 0.405029 -2.97266 
254 37 0 
-1.29883 0.40918 -3.00195 
254 28 0 
-1.30078 0.414307 -3.03906 
254 16 0 
-1.30469 0.420166 -3.08398 
254 1 0 
-1.30859 0.42627 -3.12891 
243 0 0 
-1.3125 0.432617 -3.17383 
235 0 0 
-1.31738 0.438965 -3.2207 
227 0 0 
-1.32129 0.445801 -3.27148 
220 0 0 
-1.32715 0.452881 -3.32227 
213 0 0 
-1.33203 0.460205 -3.37695 
206 0 0 
-1.33594 0.467041 -3.42773 
198 0 0 
-1.33691 0.473145 -3.4707 
191 0 0 
-1.33301 0.477539 -3.50391 
184 0 0 
-1.32422 0.480469 -3.52539 
178 0 0 
-1.31152 0.481689 -3.53516 
172 0 0 
-1.29492 0.481934 -3.53516 
172 0 0 
-1.27832 0.481934 -3.53516 
172 0 0 
-1.26172 0.481934 -3.53711 
172 0 0 
-1.24609 0.482178 -3.53906 
172 0 0 
-1.23047 0.482666 -3.54102 
172 0 0 
-1.21484 0.483154 -3.54492 
172 0 0 
-1.19727 0.483154 -3.54492 
172 0 0 
-1.18066 0.48291 -3.54297 
172 0 0 
-1.16211 0.482422 -3.53906 
173 0 0 
-1.14355 0.481689 -3.5332 
174 0 0 
-1.12402 0.480469 -3.52539 
176 0 0 
-1.10449 0.479248 -3.51758 
178 0 0 
-1.08594 0.478027 -3.50781 
179 0 0 
-1.06738 0.477295 -3.50195 
180 0 0 
-1.05078 0.477295 -3.50195 
180 0 0 
-1.03516 0.477539 -3.50391 
180 0 0 
-1.01953 0.478516 -3.50977 
180 0 0 
-1.00586 0.479492 -3.51953 
179 0 0 
-0.992676 0.481201 -3.53125 
178 0 0 
-0.979492 0.48291 -3.54297 
174 0 0 
-0.966309 0.484619 -3.55664 
169 0 0 
-0.952637 0.486328 -3.56836 
163 0 0 
-0.939453 0.488281 -3.58398 
154 0 0 
-0.92627 0.490234 -3.59766 
144 0 0 
-0.912598 0.491943 -3.60938 
134 0 0 
-0.897949 0.493408 -3.62109 
125 0 0 
-0.882813 0.494629 -3.62891 
121 0 0 
-0.867676 0.495605 -3.63672 
118 0 0 
-0.851074 0.49585 -3.63867 
117 0 0 
-0.833984 0.496094 -3.64063 
117 0 0 
-0.816895 0.496094 -3.64063 
117 0 0 
-0.798828 0.49585 -3.63867 
117 0 0 
-0.78125 0.495605 -3.63672 
118 0 0 
-0.763184 0.494873 -3.63281 
119 0 0 
-0.745117 0.494385 -3.62891 
121 0 0 
-0.726563 0.493408 -3.62109 
124 0 0 
-0.70752 0.492188 -3.61133 
127 0 0 
-0.688477 0.490723 -3.59961 
132 0 0 
-0.668945 0.489014 -3.58789 
140 0 0 
-0.650391 0.487549 -3.57617 
149 0 0 
-0.631348 0.486084 -3.56641 
155 0 0 
-0.61377 0.485352 -3.56055 
159 0 0 
-0.596191 0.484619 -3.55664 
163 0 0 
-0.579102 0.484619 -3.55664 
164 0 0 
-0.562988 0.485107 -3.56055 
164 0 0 
-0.546875 0.48584 -3.56641 
163 0 0 
-0.53125 0.487305 -3.57422 
160 0 0 
-0.515625 0.488281 -3.58398 
155 0 0 
-0.5 0.489502 -3.5918 
151 0 0 
-0.483887 0.490234 -3.59766 
146 0 0 
-0.467285 0.490967 -3.60156 
141 0 0 
-0.450684 0.491211 -3.60352 
140 0 0 
-0.43335 0.490967 -3.60156 
143 0 0 
-0.415771 0.490234 -3.59766 
143 0 0 
-0.398193 0.489502 -3.5918 
148 0 0 
-0.380371 0.488525 -3.58594 
152 0 0 
-0.362793 0.487793 -3.57813 
158 0 0 
-0.345459 0.487061 -3.57422 
162 0 0 
-0.328125 0.486572 -3.57031 
165 0 0 
-0.311279 0.486816 -3.57227 
165 0 0 
-0.294922 0.487549 -3.57617 
164 0 0 
-0.278564 0.488525 -3.58398 
159 0 0 
-0.262207 0.489746 -3.59375 
152 0 0 
-0.245972 0.491211 -3.60352 
141 0 0 
-0.229614 0.492432 -3.61328 
132 0 0 
-0.212891 0.493408 -3.62109 
127 0 0 
-0.195923 0.494141 -3.625 
124 0 0 
-0.178955 0.494385 -3.62891 
122 0 0 
-0.161987 0.495117 -3.63281 
121 0 0 
-0.145264 0.496582 -3.64258 
118 0 0 
-0.12854 0.498779 -3.66016 
114 0 0 
-0.112 0.501953 -3.68359 
110 0 0 
-0.0952759 0.505859 -3.71094 
106 0 0 
-0.0783081 0.509766 -3.74023 
101 0 0 
-0.0610962 0.513672 -3.76953 
96 0 0 
-0.0435486 0.516602 -3.79297 
93 0 0 
-0.0257568 0.519531 -3.81445 
88 0 0 
-0.00774384 0.521973 -3.83008 
84 0 0 
0.0104141 0.523438 -3.84375 
79 0 0 
0.0286407 0.524414 -3.84961 
76 0 0 
0.0467834 0.523926 -3.84375 
76 0 0 
0.0649414 0.523438 -3.8418 
74 0 0 
0.0830078 0.522949 -3.83789 
74 0 0 
0.101013 0.521973 -3.83203 
73 0 0 
0.11908 0.521484 -3.82813 
73 0 0 
0.137085 0.521484 -3.82617 
73 0 0 
0.155273 0.521484 -3.82813 
89 0 0 
0.173462 0.521973 -3.83008 
89 0 0 
0.191772 0.522461 -3.83398 
73 0 0 
0.210571 0.523926 -3.84766 
73 0 0 
0.229126 0.524902 -3.85156 
75 0 0 
0.247803 0.525879 -3.85938 
77 0 0 
0.266602 0.526855 -3.86719 
79 0 0 
0.2854 0.52832 -3.87695 
79 0 0 
0.304688 0.529297 -3.88672 
79 0 0 
0.32373 0.530762 -3.89453 
79 0 0 
0.342773 0.531738 -3.90234 
79 0 0 
0.361572 0.531738 -3.9043 
77 0 0 
0.380127 0.532227 -3.9082 
73 0 0 
0.398926 0.532715 -3.91016 
68 0 0 
0.418457 0.53418 -3.91992 
64 0 0 
0.437012 0.53418 -3.91992 
60 0 0 
0.455811 0.53418 -3.91992 
58 0 0 
0.474365 0.53418 -3.92188 
58 0 0 
0.49292 0.53418 -3.92188 
58 0 0 
0.51123 0.53418 -3.91992 
58 0 0 
0.529297 0.533691 -3.91602 
58 0 0 
0.546875 0.532715 -3.9082 
58 0 0 
0.564453 0.531738 -3.90234 
60 0 0 
0.581055 0.530273 -3.89258 
62 0 0 
0.597656 0.52832 -3.87891 
65 0 0 
0.614258 0.527344 -3.86914 
68 0 0 
0.629883 0.524902 -3.85156 
72 0 0 
0.647461 0.524414 -3.84766 
74 0 0 
0.667969 0.525879 -3.85938 
72 0 0 
0.687012 0.526367 -3.86523 
72 0 0 
0.706543 0.527344 -3.87305 
72 0 0 
0.725098 0.527832 -3.87305 
74 0 0 
0.745117 0.528809 -3.88086 
74 0 0 
0.765137 0.530273 -3.89063 
75 0 0 
0.785156 0.53125 -3.89844 
75 0 0 
0.805176 0.532227 -3.90625 
75 0 0 
0.82373 0.532227 -3.9082 
76 0 0 
0.844727 0.533691 -3.91797 
75 0 0 
0.863281 0.53418 -3.91992 
74 0 0 
0.878906 0.532227 -3.90625 
76 0 0 
0.898926 0.532715 -3.91211 
73 0 0 
0.917969 0.533203 -3.91602 
71 0 0 
0.941895 0.536133 -3.93555 
64 0 0 
0.960938 0.536621 -3.9375 
62 0 0 
0.97998 0.536621 -3.93945 
60 0 0 
1 0.537598 -3.94727 
58 0 0 
1.01855 0.537598 -3.94727 
58 0 0 
1.03711 0.537598 -3.94531 
58 0 0 
1.05469 0.537109 -3.94141 
58 0 0 
1.07422 0.537598 -3.94531 
58 0 0 
1.08887 0.535156 -3.92969 
62 0 0 
1.10156 0.532715 -3.9082 
70 0 0 
1.11133 0.528809 -3.88086 
79 0 0 
1.12012 0.523926 -3.8457 
88 0 0 
1.12695 0.518555 -3.80664 
95 0 0 
1.13379 0.513672 -3.76953 
102 0 0 
1.1416 0.509277 -3.73828 
107 0 0 
1.15137 0.505859 -3.71094 
111 0 0 
1.16309 0.503418 -3.69336 
115 0 0 
1.17578 0.500977 -3.67773 
118 0 0 
1.1875 0.499023 -3.66211 
122 0 0 
1.19727 0.49585 -3.63867 
127 0 0 
1.20605 0.492432 -3.61328 
139 0 0 
1.21289 0.488281 -3.58398 
155 0 0 
1.21973 0.484131 -3.55273 
170 0 0 
1.22461 0.479736 -3.51953 
181 0 0 
1.23047 0.475342 -3.48828 
188 0 0 
1.2334 0.470459 -3.45117 
195 0 0 
1.23438 0.464355 -3.4082 
202 0 0 
1.23145 0.457275 -3.35547 
209 0 0 
1.22363 0.44873 -3.29297 
218 0 0 
1.21289 0.439209 -3.22266 
228 0 0 
1.20117 0.429199 -3.15039 
254 1 0 
1.18848 0.419678 -3.07813 
254 1 0 
1.17578 0.410156 -3.00977 
254 21 0 
1.16699 0.402344 -2.95313 
254 36 0 
1.16406 0.396729 -2.91016 
254 48 0 
1.16602 0.392578 -2.88086 
254 58 0 
1.16895 0.38916 -2.85547 
254 68 0 
1.1709 0.385254 -2.82617 
254 79 0 
1.17578 0.382324 -2.80664 
254 88 0 
1.18066 0.379639 -2.78516 
254 99 0 
1.18555 0.377197 -2.76758 
254 109 0 
1.19141 0.374756 -2.75 
254 120 0 
1.19727 0.372559 -2.73438 
254 129 0 
1.2041 0.37085 -2.7207 
254 140 0 
1.20996 0.368652 -2.70508 
254 152 0 
1.21582 0.366455 -2.68945 
254 161 0 
1.21973 0.364014 -2.66992 
254 167 0 
1.22266 0.36084 -2.64844 
254 173 0 
1.22266 0.357422 -2.62305 
254 180 0 
1.2207 0.353027 -2.5918 
254 188 0 
1.21777 0.348877 -2.56055 
254 197 0 
1.21484 0.344727 -2.5293 
254 205 0 
1.21387 0.34082 -2.50195 
254 213 0 
1.21484 0.337891 -2.48047 
254 219 0 
1.21777 0.335449 -2.46094 
254 223 0 
1.22168 0.333496 -2.44727 
254 226 0 
1.22656 0.331543 -2.43359 
254 229 0 
1.23242 0.330078 -2.42188 
254 232 0 
1.23633 0.328125 -2.4082 
254 235 0 
1.24121 0.326416 -2.39453 
254 239 0 
1.24414 0.324219 -2.37891 
254 244 0 
1.23828 0.319824 -2.3457 
252 254 2 
1.25391 0.320801 -2.35352 
250 254 4 
1.24219 0.315186 -2.3125 
236 254 18 
1.23633 0.310791 -2.28125 
223 254 30 
1.23926 0.308838 -2.26563 
211 254 43 
1.24121 0.306641 -2.25 
207 254 46 
1.24219 0.304199 -2.23242 
201 254 53 
1.23926 0.301025 -2.20898 
192 254 62 
1.23828 0.29834 -2.18945 
183 254 71 
1.24316 0.297119 -2.17969 
175 254 79 
1.24707 0.29541 -2.16797 
169 254 85 
1.25195 0.294189 -2.1582 
136 254 118 
1.25586 0.292725 -2.14844 
124 254 129 
1.26074 0.291504 -2.13867 
116 254 138 
1.26465 0.290039 -2.12891 
109 254 145 
1.26855 0.288574 -2.11914 
104 254 150 
1.27246 0.287354 -2.10742 
100 254 154 
1.27637 0.285889 -2.09766 
96 254 157 
1.28027 0.284668 -2.08984 
93 254 160 
1.2959 0.285889 -2.09766 
96 254 157 
1.31836 0.288574 -2.11719 
104 254 150 
1.32617 0.288086 -2.11523 
102 254 152 
1.31641 0.283936 -2.08398 
86 254 168 
1.3252 0.283691 -2.08203 
86 254 168 
1.35449 0.287842 -2.11133 
94 254 160 
1.36133 0.287109 -2.10742 
89 254 165 
1.36523 0.285889 -2.09766 
80 254 174 
1.32617 0.275635 -2.02344 
52 254 202 
1.32715 0.273926 -2.00977 
46 254 207 
1.33008 0.272461 -2 
42 254 212 
1.33496 0.271484 -1.99316 
39 254 215 
1.33984 0.270508 -1.98633 
36 254 218 
1.34375 0.269531 -1.97852 
34 254 220 
1.34766 0.268311 -1.96973 
31 254 223 
1.35059 0.26709 -1.96094 
29 254 225 
1.35254 0.265625 -1.9502 
26 254 228 
1.35156 0.263672 -1.93652 
23 254 231 
1.34961 0.261475 -1.91992 
20 254 234 
1.3457 0.259033 -1.90234 
16 254 238 
1.34277 0.256836 -1.88477 
12 254 242 
1.33301 0.253174 -1.8584 
7 254 247 
1.33203 0.251465 -1.8457 
4 254 250 
1.33496 0.250488 -1.83789 
1 254 253 
1.33594 0.248901 -1.82617 
0 252 254 
1.33594 0.247437 -1.81543 
0 249 254 
1.33691 0.245972 -1.80469 
0 246 254 
1.33691 0.244385 -1.79395 
0 243 254 
1.33691 0.24292 -1.78223 
0 239 254 
1.33789 0.241577 -1.77246 
0 236 254 
1.33887 0.240112 -1.7627 
0 233 254 
1.33984 0.238892 -1.75293 
0 230 254 
1.3418 0.237671 -1.74414 
0 228 254 
1.34375 0.236572 -1.73633 
0 226 254 
1.3457 0.235474 -1.72852 
0 224 254 
1.34766 0.234375 -1.7207 
0 222 254 
1.34961 0.233276 -1.71191 
0 220 254 
1.34961 0.231934 -1.70215 
0 218 254 
1.34961 0.230591 -1.69238 
0 215 254 
1.34961 0.229248 -1.68164 
0 213 254 
1.34863 0.227783 -1.6709 
0 209 254 
1.34668 0.226074 -1.65918 
0 206 254 
1.34473 0.224487 -1.64648 
0 201 254 
1.34277 0.222778 -1.63477 
0 197 254 
1.33984 0.221191 -1.62305 
0 192 254 
1.34082 0.219971 -1.61426 
0 188 254 
1.34082 0.21875 -1.60449 
0 184 254 
1.3418 0.217773 -1.59766 
0 180 254 
1.3457 0.217041 -1.59277 
0 178 254 
1.34863 0.216309 -1.58789 
0 176 254 
1.35059 0.215576 -1.58203 
0 174 254 
1.35352 0.214722 -1.5752 
0 171 254 
1.35449 0.213745 -1.56836 
0 168 254 
1.35449 0.212524 -1.55957 
0 165 254 
1.35254 0.211182 -1.5498 
0 160 254 
1.35156 0.209839 -1.53906 
0 156 254 
1.34375 0.20752 -1.52246 
0 148 254 
1.34375 0.206421 -1.51465 
0 148 254 
1.34375 0.205322 -1.50684 
0 146 254 
1.34277 0.204102 -1.49707 
0 144 254 
1.34277 0.203003 -1.48926 
0 142 254 
1.34277 0.201904 -1.48145 
0 140 254 
1.34277 0.200928 -1.47461 
0 138 254 
1.34375 0.199951 -1.4668 
0 136 254 
1.34473 0.199097 -1.46094 
0 134 254 
1.34668 0.198364 -1.45508 
0 132 254 
1.34668 0.197388 -1.44824 
0 129 254 
1.34766 0.196533 -1.44238 
0 125 254 
1.34766 0.195435 -1.43457 
0 120 254 
1.34668 0.194336 -1.42578 
0 114 254 
1.33691 0.192017 -1.40918 
0 105 254 
1.33594 0.190918 -1.40137 
0 95 254 
1.33301 0.189575 -1.39063 
0 88 254 
1.33203 0.188477 -1.38281 
0 82 254 
1.33203 0.187622 -1.37695 
0 78 254 
1.33105 0.186523 -1.36914 
0 75 254 
1.33496 0.186157 -1.36621 
0 73 254 
1.33887 0.185913 -1.36426 
0 72 254 
1.34473 0.185669 -1.36328 
0 71 254 
1.35156 0.185669 -1.36328 
0 72 254 
1.36035 0.186157 -1.36621 
0 73 254 
1.36719 0.186157 -1.36621 
0 73 254 
1.36719 0.185303 -1.35938 
0 71 254 
-1.24219 0.173218 -1.31641 
0 0 0 
-1.23828 0.173584 -1.31934 
0 55 254 
-1.23535 0.17395 -1.32227 
0 55 254 
-1.23145 0.174438 -1.32617 
0 56 254 
-1.22949 0.174927 -1.33008 
0 56 254 
-1.22754 0.175537 -1.33496 
0 58 254 
-1.22656 0.176392 -1.34082 
0 60 254 
-1.22559 0.177124 -1.34668 
0 62 254 
-1.22461 0.177979 -1.35254 
0 63 254 
-1.22363 0.178711 -1.3584 
0 65 254 
-1.22266 0.179565 -1.36523 
0 67 254 
-1.22266 0.18042 -1.37207 
0 70 254 
-1.22266 0.181396 -1.37891 
0 72 254 
-1.22266 0.182251 -1.38574 
0 75 254 
-1.22168 0.183228 -1.39258 
0 78 254 
-1.22266 0.184326 -1.40137 
0 89 254 
-1.22363 0.185425 -1.41016 
0 89 254 
-1.22461 0.186646 -1.41895 
0 96 254 
-1.22656 0.187988 -1.42871 
0 102 254 
-1.22852 0.189331 -1.43945 
0 108 254 
-1.23047 0.190674 -1.44922 
0 112 254 
-1.23145 0.191895 -1.45898 
0 117 254 
-1.23438 0.193359 -1.4707 
0 122 254 
-1.2373 0.194946 -1.48242 
0 127 254 
-1.23926 0.196411 -1.49316 
0 131 254 
-1.24219 0.197998 -1.50586 
0 135 254 
-1.24414 0.199463 -1.5166 
0 140 254 
-1.24609 0.200928 -1.52734 
0 144 254 
-1.24707 0.202271 -1.53711 
0 149 254 
-1.24707 0.203491 -1.54688 
0 153 254 
-1.24609 0.204468 -1.55469 
0 158 254 
-1.24414 0.205444 -1.56152 
0 164 254 
-1.24219 0.206299 -1.56836 
0 168 254 
-1.24023 0.207275 -1.5752 
0 172 254 
-1.23926 0.208374 -1.58398 
0 176 254 
-1.23926 0.209473 -1.59277 
0 180 254 
-1.24023 0.210938 -1.60352 
0 185 254 
-1.24121 0.212524 -1.61621 
0 190 254 
-1.24414 0.214355 -1.62988 
0 195 254 
-1.24707 0.216064 -1.64258 
0 200 254 
-1.25 0.218018 -1.65723 
0 204 254 
-1.25195 0.219727 -1.66992 
0 208 254 
-1.25293 0.221313 -1.68164 
0 212 254 
-1.25293 0.222778 -1.69336 
0 215 254 
-1.25293 0.224121 -1.7041 
0 218 254 
-1.25195 0.225464 -1.71387 
0 221 254 
-1.25195 0.226929 -1.72559 
0 224 254 
-1.25098 0.228271 -1.73535 
0 227 254 
-1.25195 0.229858 -1.74707 
0 231 254 
-1.25293 0.231689 -1.76172 
0 235 254 
-1.25586 0.233643 -1.77637 
0 240 254 
-1.25879 0.235962 -1.79395 
0 246 254 
-1.26367 0.238403 -1.8125 
0 252 254 
-1.27051 0.241333 -1.83496 
4 254 250 
-1.2793 0.244629 -1.85938 
12 254 242 
-1.29004 0.248413 -1.88867 
20 254 234 
-1.30371 0.252686 -1.92188 
29 254 225 
-1.32031 0.257568 -1.95898 
37 254 217 
-1.33594 0.262695 -1.99707 
46 254 207 
-1.35059 0.267334 -2.0332 
59 254 195 
-1.36523 0.272217 -2.07031 
79 254 175 
-1.37695 0.276611 -2.10156 
100 254 154 
-1.38574 0.280273 -2.13086 
123 254 131 
-1.39258 0.283691 -2.1582 
145 254 109 
-1.39551 0.286621 -2.17773 
161 254 92 
-1.39648 0.288818 -2.19531 
174 254 80 
-1.39258 0.290283 -2.20703 
182 254 72 
-1.3877 0.29126 -2.21484 
186 254 68 
-1.38184 0.29248 -2.22266 
192 254 62 
-1.37402 0.292969 -2.22656 
192 254 62 
-1.36523 0.293213 -2.23047 
193 254 60 
-1.35645 0.293701 -2.23242 
194 254 59 
-1.34766 0.294189 -2.23633 
195 254 58 
-1.33887 0.294434 -2.23828 
196 254 58 
-1.33008 0.294922 -2.24219 
197 254 57 
-1.32227 0.29541 -2.24609 
200 254 54 
-1.31543 0.296387 -2.25195 
202 254 52 
-1.31055 0.297607 -2.26172 
206 254 48 
-1.30469 0.298828 -2.27148 
210 254 44 
-1.30078 0.300293 -2.2832 
216 254 38 
-1.2959 0.301514 -2.29297 
220 254 34 
-1.28906 0.302734 -2.30078 
224 254 30 
-1.28125 0.303467 -2.30664 
227 254 27 
-1.27344 0.304199 -2.3125 
229 254 25 
-1.26563 0.304688 -2.31641 
231 254 23 
-1.25781 0.305664 -2.32227 
233 254 21 
-1.25098 0.306641 -2.33203 
236 254 18 
-1.24609 0.30835 -2.34375 
242 254 12 
-1.24512 0.310791 -2.36133 
249 254 5 
-1.24805 0.314209 -2.38867 
254 248 0 
-1.25488 0.318848 -2.42383 
254 237 0 
-1.2666 0.324707 -2.46875 
254 224 0 
-1.28027 0.331543 -2.51953 
254 209 0 
-1.2959 0.338623 -2.57422 
254 192 0 
-1.31152 0.345947 -2.63086 
254 175 0 
-1.32617 0.353027 -2.68359 
254 159 0 
-1.33594 0.359131 -2.73047 
254 134 0 
-1.3418 0.364258 -2.76953 
254 118 0 
-1.34375 0.368408 -2.80078 
254 105 0 
-1.3418 0.371582 -2.82422 
254 94 0 
-1.33984 0.374756 -2.84961 
254 85 0 
-1.33691 0.37793 -2.87305 
254 75 0 
-1.33398 0.380615 -2.89453 
254 66 0 
-1.3291 0.383301 -2.91406 
254 58 0 
-1.32227 0.385254 -2.92969 
254 52 0 
-1.31543 0.387451 -2.94531 
254 46 0 
-1.30859 0.389404 -2.96094 
254 40 0 
-1.30371 0.39209 -2.98047 
254 34 0 
-1.30176 0.395752 -3.00781 
254 26 0 
-1.30176 0.400391 -3.04297 
254 15 0 
-1.30469 0.405762 -3.08594 
254 0 0 
-1.30859 0.411621 -3.12891 
243 0 0 
-1.31152 0.417236 -3.17188 
234 0 0 
-1.31543 0.42334 -3.21875 
227 0 0 
-1.32031 0.429932 -3.26758 
220 0 0 
-1.32617 0.436768 -3.32031 
213 0 0 
-1.33203 0.443848 -3.375 
206 0 0 
-1.33594 0.450684 -3.42578 
198 0 0 
-1.33594 0.456299 -3.46875 
191 0 0 
-1.33301 0.460938 -3.50391 
184 0 0 
-1.32422 0.463623 -3.52344 
178 0 0 
-1.31055 0.4646 -3.53125 
174 0 0 
-1.29395 0.464844 -3.5332 
174 0 0 
-1.27637 0.4646 -3.53125 
174 0 0 
-1.25977 0.4646 -3.53125 
174 0 0 
-1.24414 0.464844 -3.5332 
175 0 0 
-1.22852 0.465332 -3.53711 
175 0 0 
-1.21289 0.465576 -3.53906 
175 0 0 
-1.19629 0.46582 -3.54102 
174 0 0 
-1.17969 0.46582 -3.54102 
174 0 0 
-1.16211 0.465576 -3.53906 
175 0 0 
-1.14453 0.465332 -3.53711 
176 0 0 
-1.12598 0.464355 -3.53125 
176 0 0 
-1.10645 0.463379 -3.52344 
177 0 0 
-1.08691 0.462158 -3.51367 
178 0 0 
-1.06934 0.46167 -3.50781 
178 0 0 
-1.05273 0.46167 -3.50781 
177 0 0 
-1.03711 0.462158 -3.51367 
176 0 0 
-1.02246 0.462891 -3.51953 
178 0 0 
-1.00879 0.464111 -3.5293 
177 0 0 
-1 0.467773 -3.55664 
166 0 0 
-0.986328 0.469238 -3.56836 
160 0 0 
-0.972168 0.470703 -3.57813 
154 0 0 
-0.959961 0.473145 -3.5957 
143 0 0 
-0.949219 0.476318 -3.62109 
129 0 0 
-0.931641 0.476074 -3.61914 
129 0 0 
-0.916016 0.476807 -3.625 
127 0 0 
-0.900879 0.478027 -3.63281 
121 0 0 
-0.885742 0.479004 -3.64063 
117 0 0 
-0.870605 0.480225 -3.65039 
116 0 0 
-0.854492 0.480713 -3.6543 
114 0 0 
-0.837891 0.481201 -3.6582 
114 0 0 
-0.820801 0.481445 -3.66016 
113 0 0 
-0.803711 0.481445 -3.66016 
113 0 0 
-0.786621 0.481689 -3.66211 
113 0 0 
-0.769043 0.481445 -3.66016 
114 0 0 
-0.751465 0.481201 -3.6582 
115 0 0 
-0.73291 0.480469 -3.65234 
117 0 0 
-0.713867 0.479004 -3.64258 
120 0 0 
-0.694336 0.477539 -3.63086 
123 0 0 
-0.674316 0.475586 -3.61523 
128 0 0 
-0.654297 0.473633 -3.59961 
135 0 0 
-0.634766 0.47168 -3.58594 
144 0 0 
-0.615723 0.470215 -3.57422 
152 0 0 
-0.597168 0.46875 -3.56445 
158 0 0 
-0.57959 0.468262 -3.55859 
162 0 0 
-0.5625 0.467773 -3.55664 
165 0 0 
-0.545898 0.468262 -3.55859 
165 0 0 
-0.529785 0.468994 -3.56445 
164 0 0 
-0.51416 0.469971 -3.57227 
160 0 0 
-0.498291 0.470947 -3.58008 
155 0 0 
-0.482422 0.471924 -3.58789 
151 0 0 
-0.466309 0.472656 -3.59375 
146 0 0 
-0.449463 0.473145 -3.5957 
143 0 0 
-0.432617 0.473145 -3.59766 
143 0 0 
-0.415527 0.473145 -3.5957 
143 0 0 
-0.398193 0.472412 -3.5918 
147 0 0 
-0.380615 0.471924 -3.58789 
151 0 0 
-0.363281 0.471436 -3.58398 
156 0 0 
-0.345947 0.470703 -3.57813 
160 0 0 
-0.328613 0.470459 -3.57617 
163 0 0 
-0.311768 0.470703 -3.57813 
164 0 0 
-0.295166 0.470947 -3.58008 
162 0 0 
-0.278809 0.471924 -3.58789 
158 0 0 
-0.262207 0.4729 -3.5957 
151 0 0 
-0.245972 0.474121 -3.60352 
141 0 0 
-0.229492 0.475098 -3.61133 
133 0 0 
-0.212646 0.47583 -3.61719 
127 0 0 
-0.195801 0.476563 -3.62305 
125 0 0 
-0.178711 0.476807 -3.625 
123 0 0 
-0.161865 0.477539 -3.63086 
121 0 0 
-0.145142 0.47876 -3.64063 
118 0 0 
-0.128418 0.481201 -3.6582 
114 0 0 
-0.111938 0.484375 -3.68164 
110 0 0 
-0.0952759 0.488037 -3.71094 
106 0 0 
-0.0783081 0.491943 -3.74023 
101 0 0 
-0.0610962 0.49585 -3.76953 
96 0 0 
-0.0435486 0.499023 -3.79297 
93 0 0 
-0.0257568 0.501953 -3.81641 
88 0 0 
-0.00774384 0.503906 -3.83203 
84 0 0 
0.0104141 0.505371 -3.84375 
80 0 0 
0.0286407 0.506348 -3.84961 
77 0 0 
0.0467834 0.505371 -3.84375 
77 0 0 
0.0648804 0.504883 -3.83984 
76 0 0 
0.0829468 0.504395 -3.83594 
76 0 0 
0.101074 0.503906 -3.83203 
75 0 0 
0.11908 0.503906 -3.83008 
75 0 0 
0.137085 0.503418 -3.82813 
74 0 0 
0.155273 0.503906 -3.83008 
89 0 0 
0.173584 0.503906 -3.83203 
88 0 0 
0.191772 0.504395 -3.83594 
75 0 0 
0.210693 0.505859 -3.84766 
75 0 0 
0.229126 0.506836 -3.85352 
77 0 0 
0.247681 0.507324 -3.85742 
79 0 0 
0.266357 0.508301 -3.86328 
81 0 0 
0.285156 0.509277 -3.87305 
82 0 0 
0.304199 0.510254 -3.87891 
82 0 0 
0.322998 0.510742 -3.88477 
82 0 0 
0.341797 0.511719 -3.89063 
81 0 0 
0.360352 0.512207 -3.89258 
79 0 0 
0.379639 0.513184 -3.90039 
75 0 0 
0.398438 0.513184 -3.90234 
71 0 0 
0.416992 0.513672 -3.90625 
68 0 0 
0.435547 0.513672 -3.90625 
64 0 0 
0.454346 0.51416 -3.9082 
61 0 0 
0.473145 0.51416 -3.91016 
63 0 0 
0.491699 0.51416 -3.91211 
63 0 0 
0.509766 0.51416 -3.91016 
58 0 0 
0.52832 0.51416 -3.9082 
58 0 0 
0.545898 0.513672 -3.9043 
58 0 0 
0.563477 0.512695 -3.89844 
59 0 0 
0.580566 0.511719 -3.88867 
62 0 0 
0.597656 0.510254 -3.87891 
64 0 0 
0.614746 0.509277 -3.87305 
65 0 0 
0.632324 0.508789 -3.86719 
67 0 0 
0.650879 0.508789 -3.86719 
68 0 0 
0.669922 0.509277 -3.87109 
67 0 0 
0.689453 0.510254 -3.87891 
67 0 0 
0.708008 0.510254 -3.87891 
68 0 0 
0.727539 0.51123 -3.88672 
68 0 0 
0.747559 0.512207 -3.89453 
70 0 0 
0.767578 0.513184 -3.90234 
71 0 0 
0.787109 0.51416 -3.9082 
72 0 0 
0.806641 0.514648 -3.91406 
73 0 0 
0.82959 0.51709 -3.93359 
69 0 0 
0.848633 0.517578 -3.93555 
69 0 0 
0.867188 0.517578 -3.93555 
68 0 0 
0.881348 0.515137 -3.91797 
71 0 0 
0.901367 0.515625 -3.92188 
68 0 0 
0.92334 0.517578 -3.9375 
63 0 0 
0.942871 0.518066 -3.93945 
61 0 0 
0.961426 0.518066 -3.93945 
59 0 0 
0.97998 0.518066 -3.93945 
58 0 0 
1.00098 0.519531 -3.95117 
58 0 0 
1.01953 0.519531 -3.95117 
58 0 0 
1.03711 0.519043 -3.94727 
58 0 0 
1.05469 0.518555 -3.94336 
58 0 0 
1.07422 0.519043 -3.94727 
58 0 0 
1.08887 0.51709 -3.92969 
60 0 0 
1.10059 0.513672 -3.9082 
68 0 0 
1.11035 0.509766 -3.87695 
78 0 0 
1.11914 0.505371 -3.84375 
87 0 0 
1.12598 0.500488 -3.80664 
94 0 0 
1.13379 0.49585 -3.76953 
100 0 0 
1.14258 0.491943 -3.74023 
106 0 0 
1.15332 0.489014 -3.7168 
110 0 0 
1.16504 0.486816 -3.70117 
112 0 0 
1.17871 0.484863 -3.68555 
115 0 0 
1.18945 0.482666 -3.66797 
119 0 0 
1.19824 0.479004 -3.64258 
125 0 0 
1.20508 0.475098 -3.61133 
137 0 0 
1.21094 0.470459 -3.57617 
156 0 0 
1.21582 0.46582 -3.54102 
172 0 0 
1.2207 0.461426 -3.50781 
183 0 0 
1.22559 0.457275 -3.47656 
189 0 0 
1.22949 0.452393 -3.43945 
195 0 0 
1.23047 0.446777 -3.39648 
202 0 0 
1.22852 0.440186 -3.34766 
209 0 0 
1.22168 0.432617 -3.28711 
217 0 0 
1.21289 0.423828 -3.2207 
227 0 0 
1.20117 0.414551 -3.15234 
250 0 0 
1.18945 0.405518 -3.08203 
250 0 0 
1.17773 0.396729 -3.01563 
254 15 0 
1.1709 0.389648 -2.96289 
254 29 0 
1.16895 0.384277 -2.92188 
254 40 0 
1.1748 0.381592 -2.90039 
254 47 0 
1.17773 0.378174 -2.875 
254 57 0 
1.17578 0.373535 -2.83984 
254 70 0 
1.18066 0.370605 -2.81641 
254 80 0 
1.18457 0.367676 -2.79688 
254 91 0 
1.18945 0.365234 -2.77734 
254 103 0 
1.19531 0.362793 -2.75977 
254 114 0 
1.20117 0.36084 -2.74219 
254 124 0 
1.20801 0.358887 -2.72852 
254 135 0 
1.21387 0.356934 -2.71289 
254 146 0 
1.21875 0.354736 -2.69727 
254 158 0 
1.22363 0.352295 -2.67773 
254 165 0 
1.22559 0.349121 -2.6543 
254 172 0 
1.22559 0.345703 -2.62695 
254 179 0 
1.22266 0.341553 -2.5957 
254 188 0 
1.2207 0.337402 -2.56445 
254 196 0 
1.21777 0.333252 -2.5332 
254 205 0 
1.2168 0.329834 -2.50781 
254 213 0 
1.21777 0.326904 -2.48633 
254 219 0 
1.2207 0.324707 -2.4668 
254 223 0 
1.22559 0.322754 -2.45313 
254 226 0 
1.23145 0.321289 -2.44141 
254 230 0 
1.23633 0.31958 -2.42969 
254 232 0 
1.24121 0.317871 -2.41602 
254 236 0 
1.24414 0.315674 -2.39844 
254 240 0 
1.27539 0.320801 -2.43945 
254 236 0 
1.26563 0.31543 -2.39648 
254 246 0 
1.25098 0.308838 -2.34766 
246 254 8 
1.25098 0.306396 -2.33008 
236 254 18 
1.25 0.303467 -2.30664 
226 254 27 
1.24805 0.300293 -2.28125 
213 254 41 
1.24414 0.296631 -2.25586 
205 254 49 
1.24316 0.293945 -2.23438 
197 254 57 
1.23926 0.290771 -2.20898 
185 254 69 
1.23926 0.288086 -2.19141 
174 254 80 
1.24414 0.286865 -2.18164 
164 254 90 
1.24805 0.2854 -2.16992 
157 254 97 
1.25195 0.283936 -2.1582 
106 254 148 
1.25586 0.282715 -2.14844 
108 254 146 
1.25977 0.28125 -2.13672 
100 254 154 
1.2666 0.280518 -2.13281 
96 254 158 
1.27051 0.279053 -2.12109 
92 254 162 
1.26953 0.276611 -2.10352 
87 254 167 
1.27246 0.275146 -2.0918 
84 254 170 
1.27637 0.273926 -2.08203 
82 254 172 
1.2793 0.272217 -2.07031 
78 254 175 
1.28516 0.271729 -2.06445 
77 254 177 
1.30176 0.272949 -2.07422 
81 254 173 
1.3125 0.273193 -2.07617 
78 254 175 
1.32227 0.273193 -2.07617 
78 254 175 
1.31445 0.269531 -2.04883 
65 254 189 
1.32227 0.269043 -2.04688 
61 254 192 
1.30469 0.263672 -2.00391 
50 254 204 
1.32031 0.264893 -2.01367 
48 254 206 
1.32227 0.263428 -2.00195 
43 254 211 
1.32617 0.262207 -1.99414 
40 254 214 
1.33105 0.261475 -1.98828 
37 254 217 
1.33691 0.260742 -1.98242 
35 254 219 
1.34277 0.26001 -1.97754 
33 254 221 
1.34766 0.259277 -1.97168 
31 254 223 
1.35352 0.258545 -1.96582 
29 254 224 
1.35645 0.257324 -1.95605 
27 254 227 
1.35742 0.255615 -1.94434 
24 254 230 
1.35547 0.253662 -1.92773 
21 254 233 
1.35156 0.251221 -1.91016 
17 254 237 
1.34668 0.248779 -1.89063 
13 254 241 
1.33691 0.245361 -1.86523 
8 254 246 
1.33887 0.244141 -1.85547 
5 254 249 
1.33887 0.242432 -1.84277 
2 254 252 
1.33887 0.240845 -1.83105 
0 252 254 
1.33887 0.23938 -1.81934 
0 249 254 
1.33887 0.237793 -1.80762 
0 246 254 
1.33887 0.236328 -1.79688 
0 243 254 
1.33887 0.234863 -1.78516 
0 239 254 
1.33984 0.233398 -1.77441 
0 236 254 
1.33984 0.231934 -1.76367 
0 233 254 
1.33984 0.230591 -1.75293 
0 230 254 
1.3418 0.229492 -1.74414 
0 228 254 
1.34375 0.228394 -1.73633 
0 225 254 
1.34668 0.227417 -1.72949 
0 224 254 
1.34766 0.22644 -1.72168 
0 222 254 
1.34961 0.22522 -1.71191 
0 220 254 
1.34961 0.223999 -1.70313 
0 218 254 
1.35059 0.222778 -1.69336 
0 216 254 
1.34961 0.221313 -1.68164 
0 213 254 
1.34863 0.219849 -1.6709 
0 210 254 
1.34668 0.218262 -1.65918 
0 206 254 
1.34375 0.216553 -1.64551 
0 202 254 
1.3418 0.214966 -1.63379 
0 198 254 
1.33984 0.213501 -1.62305 
0 193 254 
1.33984 0.212158 -1.61328 
0 188 254 
1.34082 0.21106 -1.60449 
0 184 254 
1.34277 0.210327 -1.59863 
0 180 254 
1.3457 0.209473 -1.59277 
0 178 254 
1.34863 0.208862 -1.58789 
0 176 254 
1.35156 0.208252 -1.58301 
0 174 254 
1.35449 0.207397 -1.57715 
0 172 254 
1.35547 0.206421 -1.56934 
0 168 254 
1.35449 0.2052 -1.55957 
0 165 254 
1.35254 0.203857 -1.5498 
0 160 254 
1.35059 0.202393 -1.53809 
0 155 254 
1.34668 0.200684 -1.52539 
0 148 254 
1.34473 0.199341 -1.51563 
0 148 254 
1.34375 0.19812 -1.50684 
0 145 254 
1.34375 0.197144 -1.49805 
0 143 254 
1.34277 0.195923 -1.48926 
0 141 254 
1.34277 0.194824 -1.48145 
0 139 254 
1.3418 0.193848 -1.47363 
0 137 254 
1.34277 0.192871 -1.46582 
0 135 254 
1.34277 0.191895 -1.45898 
0 133 254 
1.34375 0.19104 -1.45215 
0 131 254 
1.34473 0.190186 -1.44629 
0 128 254 
1.34473 0.189331 -1.43945 
0 124 254 
1.3457 0.188354 -1.43164 
0 119 254 
1.34473 0.187378 -1.42383 
0 113 254 
1.33691 0.185303 -1.40918 
0 105 254 
1.33008 0.183472 -1.39453 
0 94 254 
1.33008 0.182617 -1.3877 
0 88 254 
1.33008 0.181641 -1.38086 
0 84 254 
1.33203 0.181152 -1.37695 
0 80 254 
1.33398 0.18042 -1.37207 
0 76 254 
1.33887 0.180176 -1.37012 
0 75 254 
1.34375 0.180054 -1.36914 
0 74 254 
1.35059 0.180054 -1.36914 
0 74 254 
1.3584 0.180176 -1.37012 
0 74 254 
1.36523 0.180298 -1.37109 
0 75 254 
1.37305 0.18042 -1.37207 
0 75 254 
1.37695 0.180054 -1.36914 
0 74 254 
-1.25195 0.16748 -1.32031 
0 0 0 
-1.24609 0.16748 -1.32031 
0 55 254 
-1.23828 0.167358 -1.31934 
0 55 254 
-1.23438 0.167603 -1.32129 
0 55 254 
-1.23145 0.168091 -1.32617 
0 56 254 
-1.22949 0.168579 -1.33008 
0 56 254 
-1.22754 0.169312 -1.33496 
0 58 254 
-1.22559 0.169922 -1.33984 
0 59 254 
-1.22461 0.170654 -1.3457 
0 61 254 
-1.22461 0.171387 -1.35156 
0 63 254 
-1.22363 0.172241 -1.35742 
0 65 254 
-1.22168 0.172974 -1.36426 
0 66 254 
-1.2207 0.173706 -1.37012 
0 69 254 
-1.2207 0.174561 -1.37695 
0 71 254 
-1.2207 0.175537 -1.38379 
0 74 254 
-1.2207 0.176514 -1.3916 
0 77 254 
-1.22168 0.17749 -1.40039 
0 88 254 
-1.22266 0.178711 -1.40918 
0 88 254 
-1.22461 0.179932 -1.41895 
0 95 254 
-1.22559 0.181152 -1.42773 
0 102 254 
-1.22754 0.182373 -1.43848 
0 107 254 
-1.22949 0.183594 -1.44824 
0 112 254 
-1.23145 0.185059 -1.45898 
0 117 254 
-1.23438 0.186401 -1.4707 
0 122 254 
-1.2373 0.187988 -1.48242 
0 126 254 
-1.23926 0.189331 -1.49316 
0 131 254 
-1.24219 0.190918 -1.50586 
0 135 254 
-1.24512 0.192383 -1.51758 
0 139 254 
-1.24609 0.193726 -1.52734 
0 144 254 
-1.24707 0.194946 -1.53711 
0 148 254 
-1.24707 0.196167 -1.54688 
0 152 254 
-1.24609 0.197144 -1.55469 
0 158 254 
-1.24414 0.197998 -1.56152 
0 164 254 
-1.24219 0.198975 -1.56836 
0 168 254 
-1.23926 0.199707 -1.57422 
0 172 254 
-1.23828 0.200684 -1.58301 
0 175 254 
-1.23828 0.201904 -1.5918 
0 179 254 
-1.23926 0.203247 -1.60254 
0 184 254 
-1.24023 0.204834 -1.61523 
0 189 254 
-1.24316 0.206421 -1.62793 
0 194 254 
-1.24609 0.208252 -1.6416 
0 199 254 
-1.24805 0.209839 -1.65527 
0 203 254 
-1.25 0.211548 -1.66797 
0 207 254 
-1.25098 0.213013 -1.67969 
0 211 254 
-1.25195 0.2146 -1.69238 
0 215 254 
-1.25195 0.215942 -1.70313 
0 218 254 
-1.25098 0.217285 -1.71289 
0 221 254 
-1.25098 0.218628 -1.72461 
0 224 254 
-1.25 0.219971 -1.73438 
0 226 254 
-1.25 0.221313 -1.74512 
0 230 254 
-1.25 0.2229 -1.75781 
0 234 254 
-1.25195 0.224609 -1.77148 
0 238 254 
-1.25488 0.226685 -1.78711 
0 244 254 
-1.25879 0.229004 -1.80566 
0 249 254 
-1.26367 0.231445 -1.82422 
2 254 252 
-1.27051 0.234131 -1.84668 
8 254 246 
-1.2793 0.237549 -1.87305 
15 254 239 
-1.29004 0.241211 -1.90234 
23 254 231 
-1.30273 0.245239 -1.93359 
31 254 223 
-1.31641 0.249634 -1.96777 
38 254 216 
-1.3291 0.253662 -2 
47 254 207 
-1.34277 0.258057 -2.03516 
59 254 195 
-1.35449 0.262207 -2.06836 
79 254 175 
-1.36523 0.266357 -2.09961 
100 254 154 
-1.37598 0.270264 -2.13086 
123 254 131 
-1.38281 0.273682 -2.1582 
146 254 108 
-1.3877 0.276611 -2.18164 
164 254 90 
-1.3877 0.278809 -2.19922 
177 254 77 
-1.38574 0.280518 -2.21094 
185 254 69 
-1.38379 0.282227 -2.22461 
195 254 58 
-1.37695 0.282959 -2.23242 
195 254 58 
-1.37012 0.283691 -2.23633 
197 254 57 
-1.36133 0.283936 -2.24023 
199 254 55 
-1.35254 0.284424 -2.24219 
200 254 54 
-1.34277 0.284668 -2.24414 
201 254 53 
-1.33301 0.284912 -2.24609 
201 254 53 
-1.3252 0.2854 -2.25 
202 254 52 
-1.31738 0.286133 -2.25781 
205 254 49 
-1.31152 0.287109 -2.26563 
208 254 46 
-1.30664 0.28833 -2.27344 
212 254 42 
-1.30078 0.289551 -2.2832 
216 254 38 
-1.2959 0.290771 -2.29297 
221 254 33 
-1.28906 0.291748 -2.30078 
224 254 30 
-1.28027 0.292236 -2.30469 
226 254 27 
-1.27148 0.292725 -2.30859 
228 254 26 
-1.2627 0.293213 -2.3125 
230 254 24 
-1.25488 0.293945 -2.31836 
232 254 22 
-1.24805 0.294922 -2.32617 
234 254 20 
-1.24316 0.296387 -2.33789 
239 254 14 
-1.24219 0.298828 -2.35547 
246 254 8 
-1.24414 0.302002 -2.38281 
254 250 0 
-1.25195 0.306641 -2.41797 
254 239 0 
-1.2627 0.312256 -2.46094 
254 227 0 
-1.27637 0.318359 -2.51172 
254 212 0 
-1.29199 0.325439 -2.56641 
254 194 0 
-1.30859 0.332764 -2.62305 
254 177 0 
