ply
format ascii 1.0
comment pointcloud saved from Realsense Viewer
element vertex 2245
property float32 x
property float32 y
property float32 z
property uchar red
property uchar green
property uchar blue
end_header
139 139 133 
2.08398 0.0391541 -2.17383 
139 139 133 
2.14453 0.0401001 -2.22852 
139 139 133 
2.1875 0.0407104 -2.25977 
139 139 133 
2.2168 0.0410461 -2.2793 
139 139 133 
2.23438 0.0411987 -2.28711 
139 139 133 
2.24414 0.0411377 -2.28516 
139 139 133 
2.24805 0.0410461 -2.2793 
139 139 133 
2.25195 0.0408936 -2.27148 
139 139 133 
2.25391 0.040741 -2.26367 
139 139 133 
2.23633 0.0402222 -2.23438 
139 139 133 
2.23438 0.0400085 -2.2207 
139 139 133 
-2.34961 0.0517273 -3.89648 
101 100 100 
-2.32617 0.0516357 -3.89063 
101 100 100 
-2.30273 0.0515442 -3.88281 
108 105 102 
-2.2832 0.0515137 -3.88086 
76 72 75 
-2.26758 0.0515442 -3.88281 
87 78 81 
-2.25 0.0515747 -3.88477 
155 147 146 
-2.23633 0.0516968 -3.89453 
179 174 170 
-2.22266 0.0517883 -3.90234 
191 184 176 
-2.20117 0.0517273 -3.89648 
183 172 167 
-2.00586 0.0505371 -3.80664 
189 180 171 
-1.9834 0.0503845 -3.79688 
189 180 171 
-1.95801 0.0502014 -3.78125 
189 180 171 
-1.9375 0.0501404 -3.77734 
190 181 172 
-1.92188 0.0502014 -3.78125 
193 184 175 
-1.90332 0.0501709 -3.7793 
194 185 176 
-1.88379 0.0501404 -3.77734 
204 192 176 
-1.86816 0.0502014 -3.78125 
193 175 155 
-1.85449 0.0503235 -3.79102 
160 123 91 
-1.8418 0.0504456 -3.80078 
122 88 57 
-1.82715 0.0505676 -3.80859 
131 102 79 
-1.81348 0.0506592 -3.81641 
123 95 76 
-1.79688 0.0507202 -3.82031 
120 96 80 
-1.78125 0.0507813 -3.82617 
109 85 69 
-1.76367 0.0508118 -3.82813 
88 69 56 
-1.6875 0.0501404 -3.77734 
85 78 70 
-1.66211 0.0499268 -3.76172 
106 104 96 
-1.64355 0.0498962 -3.75977 
89 90 84 
-1.62598 0.0498962 -3.75977 
97 94 91 
-1.60449 0.0498047 -3.75195 
92 92 86 
-1.58301 0.0496826 -3.74219 
85 85 81 
-1.55762 0.0494385 -3.72461 
81 82 78 
-1.53125 0.0491333 -3.70117 
80 84 79 
-1.50195 0.0487671 -3.67383 
83 83 83 
-1.47461 0.0484314 -3.64844 
82 82 82 
-1.44629 0.0480652 -3.62109 
82 81 81 
-1.41406 0.0475464 -3.58203 
81 81 81 
-1.38965 0.0473022 -3.56445 
94 94 94 
-1.37305 0.0473022 -3.56445 
76 75 77 
-1.35645 0.0473328 -3.56641 
64 60 65 
-1.33984 0.0473328 -3.56641 
59 59 61 
-1.32813 0.0475159 -3.58008 
58 58 60 
-1.30273 0.0472412 -3.55859 
57 60 61 
-1.28809 0.0473022 -3.56445 
54 60 62 
-1.28027 0.0476379 -3.58789 
53 56 59 
-1.27148 0.0479431 -3.61133 
50 56 58 
-1.25879 0.0480957 -3.62305 
50 56 58 
-1.24609 0.0482788 -3.63867 
53 56 59 
-1.22949 0.0483093 -3.64063 
52 55 58 
-1.20898 0.0481873 -3.63086 
59 62 63 
-1.19531 0.0483093 -3.64063 
58 61 62 
-1.1748 0.0481873 -3.63086 
62 65 66 
-1.15234 0.0479736 -3.61328 
62 65 66 
-1.13184 0.0477905 -3.60156 
52 55 58 
-1.1123 0.0477295 -3.5957 
48 47 51 
-1.08789 0.0473938 -3.57031 
44 38 42 
-1.06445 0.0470886 -3.54688 
31 18 22 
-1.04492 0.0469666 -3.53711 
62 48 42 
-1.02148 0.0466919 -3.51758 
110 100 98 
-0.996094 0.0462341 -3.48438 
174 165 158 
-0.967285 0.0456848 -3.44141 
188 179 174 
-0.943848 0.0453186 -3.41406 
182 173 166 
-0.912109 0.0445557 -3.35742 
171 162 155 
-0.880859 0.0437927 -3.29883 
174 167 159 
-0.852539 0.0431519 -3.25195 
25 21 22 
-0.828125 0.0426941 -3.2168 
30 22 21 
-0.806641 0.0423584 -3.19141 
146 135 128 
-0.786133 0.0420532 -3.16992 
141 130 123 
-0.766602 0.0418091 -3.15039 
145 134 127 
-0.746094 0.0415344 -3.12891 
139 130 123 
-0.726074 0.0412292 -3.10547 
131 123 120 
-0.706055 0.0409241 -3.08398 
85 70 69 
-0.686523 0.0406189 -3.06055 
96 88 87 
-0.668457 0.0404053 -3.04492 
76 71 67 
-0.650879 0.0402222 -3.0293 
83 74 69 
-0.634766 0.0401001 -3.02148 
56 45 38 
-0.620117 0.0400696 -3.01953 
49 33 26 
-0.607422 0.0401611 -3.02539 
71 57 49 
-0.595215 0.0403137 -3.03711 
92 79 66 
-0.584473 0.0405579 -3.05664 
111 98 85 
-0.574219 0.040863 -3.07813 
127 115 95 
-0.563965 0.0411987 -3.10352 
144 132 112 
-0.554199 0.0415649 -3.13086 
134 120 103 
-0.543457 0.0418701 -3.1543 
108 92 71 
-0.532715 0.0422058 -3.17969 
113 94 77 
-0.521484 0.042511 -3.20313 
122 105 89 
-0.509277 0.0427551 -3.2207 
105 86 71 
-0.496582 0.0429688 -3.23633 
87 73 58 
-0.483154 0.0431213 -3.25 
111 103 91 
-0.469238 0.0432739 -3.25977 
122 120 110 
-0.455566 0.0434265 -3.27148 
108 109 100 
-0.441895 0.0436096 -3.28711 
99 99 93 
-0.429443 0.0439148 -3.30859 
90 90 84 
-0.417236 0.0443115 -3.33789 
88 88 84 
-0.405273 0.0447083 -3.36914 
84 84 84 
-0.392822 0.0451355 -3.40039 
83 84 80 
-0.379395 0.0454407 -3.42383 
82 83 79 
-0.364746 0.0456543 -3.43945 
84 85 81 
-0.349365 0.0457458 -3.44727 
25 24 26 
-0.333252 0.0457764 -3.44922 
33 32 34 
-0.31665 0.0457458 -3.44727 
35 34 34 
-0.300537 0.0457458 -3.44727 
36 37 33 
-0.284424 0.0458069 -3.45117 
35 39 34 
-0.268555 0.0458679 -3.45508 
50 50 50 
-0.252686 0.0459595 -3.46289 
74 78 73 
-0.236816 0.046051 -3.46875 
79 79 81 
-0.220703 0.0461121 -3.47461 
78 81 82 
-0.204346 0.0461426 -3.47656 
80 83 84 
-0.187988 0.0461731 -3.47852 
95 98 99 
-0.171509 0.0461731 -3.47852 
109 112 113 
-0.155029 0.0461426 -3.47656 
119 125 125 
-0.138184 0.04599 -3.46484 
114 120 120 
-0.121277 0.0458069 -3.45117 
115 121 121 
-0.104248 0.0455017 -3.42773 
126 132 132 
-0.0870972 0.0450439 -3.39258 
120 128 127 
-0.0699463 0.044342 -3.33984 
106 114 113 
-0.0529785 0.0433655 -3.26758 
127 133 133 
-0.0365295 0.0422363 -3.18164 
129 135 137 
-0.0208588 0.0410156 -3.08984 
128 134 134 
-0.00606537 0.0398254 -3 
126 132 132 
0.00793457 0.0388794 -2.92969 
73 73 73 
0.0214386 0.0382385 -2.88086 
120 116 109 
0.0348206 0.0379639 -2.86133 
96 93 90 
0.0486145 0.0381775 -2.875 
85 85 79 
0.0629272 0.0386047 -2.9082 
88 84 77 
0.0789185 0.0397339 -2.99219 
144 145 139 
0.0957642 0.040863 -3.07813 
128 134 132 
0.113098 0.0419006 -3.15625 
133 139 139 
0.130737 0.0427856 -3.22266 
133 139 139 
0.147949 0.0433655 -3.26758 
133 139 139 
0.164673 0.0437012 -3.29297 
140 146 146 
0.180786 0.0438538 -3.30273 
135 141 141 
0.199951 0.0446472 -3.36328 
136 142 142 
0.21582 0.0446167 -3.36133 
134 140 138 
0.230713 0.0444031 -3.3457 
139 139 139 
0.244873 0.0441284 -3.32422 
139 139 139 
0.257568 0.0436096 -3.28711 
151 147 140 
0.265869 0.04245 -3.19727 
186 178 164 
0.2771 0.0418701 -3.1543 
183 173 159 
0.287842 0.0412598 -3.10742 
185 173 155 
0.297363 0.0405579 -3.05664 
185 171 154 
0.306152 0.0398254 -3 
186 169 153 
0.314453 0.039093 -2.94531 
185 168 152 
0.32251 0.0383911 -2.89258 
179 162 146 
0.330322 0.0377197 -2.8418 
180 163 145 
0.338867 0.0371704 -2.80078 
182 165 147 
0.347656 0.0367126 -2.76563 
182 165 147 
0.357666 0.036377 -2.74219 
176 159 141 
0.368164 0.0361328 -2.72266 
179 162 144 
0.378906 0.0359497 -2.70898 
176 159 141 
0.390625 0.0358582 -2.70117 
176 159 141 
0.402832 0.0357971 -2.69727 
175 158 140 
0.415527 0.0357971 -2.69727 
174 157 139 
0.428955 0.0358582 -2.70117 
174 157 139 
0.443115 0.0359497 -2.70898 
171 157 138 
0.458008 0.0361328 -2.7207 
174 160 141 
0.473389 0.0363159 -2.73633 
166 152 137 
0.488525 0.0364685 -2.74805 
141 125 118 
0.504395 0.0366821 -2.76367 
120 106 100 
0.51709 0.0366516 -2.76172 
89 78 71 
0.530273 0.0366516 -2.76172 
80 69 62 
0.54248 0.0366211 -2.75781 
76 66 64 
0.554199 0.0365295 -2.75195 
79 69 67 
0.566406 0.0364685 -2.74805 
82 71 66 
0.57959 0.0364685 -2.74805 
107 93 87 
0.59375 0.0365601 -2.75391 
157 143 124 
0.61084 0.0368042 -2.77344 
138 116 90 
0.629883 0.0371704 -2.79883 
116 93 72 
0.650879 0.0375977 -2.83203 
107 83 69 
0.67334 0.0381165 -2.87109 
56 41 29 
0.696289 0.0386353 -2.91016 
59 48 39 
0.71875 0.039093 -2.94531 
115 108 98 
0.740723 0.0395203 -2.97852 
98 94 83 
0.762207 0.039917 -3.00781 
90 90 84 
0.783691 0.0402832 -3.03516 
90 90 84 
0.805176 0.0406494 -3.0625 
89 89 83 
0.826172 0.0409851 -3.08789 
93 90 85 
0.848145 0.0413208 -3.11328 
92 89 84 
0.869141 0.041626 -3.13672 
91 91 85 
0.889648 0.0419006 -3.15625 
89 90 86 
0.910156 0.0421448 -3.17578 
88 89 85 
0.929199 0.0423279 -3.18945 
94 95 91 
0.94873 0.0425415 -3.20508 
98 98 92 
0.968262 0.0427246 -3.21875 
110 110 104 
0.987793 0.0429077 -3.23242 
119 116 111 
1.00684 0.0430908 -3.24805 
119 119 113 
1.02734 0.0433044 -3.26172 
125 125 119 
1.04688 0.0434875 -3.27539 
122 122 116 
1.06836 0.0437012 -3.29297 
120 120 114 
1.09082 0.0439758 -3.3125 
144 144 144 
1.11426 0.0443115 -3.33789 
140 144 137 
1.14063 0.0447083 -3.36914 
136 140 133 
1.16992 0.0452271 -3.4082 
135 139 132 
1.20117 0.0458069 -3.45117 
131 135 130 
1.23438 0.0464478 -3.5 
130 130 130 
1.26953 0.0471497 -3.55273 
131 131 131 
1.30371 0.04776 -3.59961 
136 136 130 
1.33594 0.0483093 -3.64063 
133 133 127 
1.36328 0.0486755 -3.66602 
137 137 133 
1.37988 0.048645 -3.66406 
137 137 133 
1.39648 0.048645 -3.66406 
138 138 134 
1.40918 0.0484924 -3.65234 
139 138 138 
1.42871 0.0485229 -3.65625 
140 139 139 
1.43652 0.0482483 -3.63477 
138 137 137 
1.44531 0.0479736 -3.61328 
138 137 137 
1.45605 0.04776 -3.59766 
137 136 136 
1.46875 0.0476074 -3.58594 
140 139 139 
1.48438 0.0475464 -3.58203 
137 137 133 
1.50195 0.0475769 -3.58398 
139 139 135 
1.52051 0.0476379 -3.58789 
139 139 135 
1.54102 0.04776 -3.59766 
140 140 140 
1.56055 0.047821 -3.60352 
138 139 135 
1.58105 0.0479126 -3.60938 
139 140 136 
1.59863 0.0479431 -3.61133 
143 144 140 
1.61523 0.0479431 -3.61133 
137 140 139 
1.63281 0.0479431 -3.61133 
137 140 139 
1.64844 0.0478821 -3.60742 
144 144 144 
1.66406 0.0478516 -3.60547 
145 145 145 
1.68066 0.047821 -3.60352 
142 142 144 
1.69629 0.0477905 -3.60156 
143 142 144 
1.71191 0.04776 -3.59961 
145 144 146 
1.72852 0.04776 -3.59766 
133 132 134 
1.74414 0.0477295 -3.5957 
143 142 144 
1.76074 0.047699 -3.59375 
142 142 142 
1.77734 0.047699 -3.59375 
142 142 142 
1.79297 0.0476685 -3.5918 
140 140 140 
1.80957 0.0476379 -3.58789 
143 143 147 
1.8252 0.0476074 -3.58594 
143 143 145 
1.84082 0.0475769 -3.58398 
138 140 146 
1.85547 0.0474854 -3.57813 
140 143 146 
1.87305 0.0475159 -3.58008 
145 145 147 
1.89063 0.0475464 -3.58203 
143 146 147 
1.90332 0.0474548 -3.57422 
140 145 150 
1.9209 0.0474548 -3.57422 
139 145 147 
1.94336 0.0475769 -3.58398 
142 145 148 
1.95508 0.0474854 -3.57617 
141 144 147 
1.96777 0.0473633 -3.56836 
141 144 147 
1.97949 0.0472412 -3.55859 
141 147 149 
1.99023 0.0470886 -3.54688 
141 147 149 
2 0.0469666 -3.53711 
140 146 148 
2.01172 0.0468445 -3.5293 
141 144 147 
2.02539 0.0467224 -3.52148 
145 148 151 
2.03711 0.0466309 -3.51367 
144 144 148 
2.04883 0.0465393 -3.50586 
144 144 148 
2.06445 0.0464783 -3.50195 
142 142 146 
2.07813 0.0464478 -3.49805 
142 145 148 
2.08984 0.0463562 -3.49219 
142 145 148 
2.10352 0.0462646 -3.48633 
144 143 150 
2.11523 0.0461731 -3.47852 
142 142 146 
2.12695 0.046051 -3.46875 
138 140 146 
2.13477 0.0458984 -3.45703 
143 145 151 
2.14453 0.0457153 -3.44531 
140 142 148 
2.15039 0.0455017 -3.42773 
139 144 149 
2.15234 0.0452271 -3.4082 
142 144 150 
2.15625 0.0449524 -3.38672 
140 142 148 
2.1582 0.0446777 -3.36719 
140 142 148 
2.16211 0.0444336 -3.34766 
137 140 143 
2.16797 0.04422 -3.33203 
135 141 143 
2.17188 0.0439758 -3.3125 
138 143 148 
2.17773 0.0437927 -3.29883 
136 135 142 
2.18359 0.0436096 -3.28516 
140 143 144 
2.18945 0.043396 -3.26953 
138 141 142 
2.18359 0.0429993 -3.24023 
137 140 141 
1.24316 0.0239563 -1.80469 
128 128 130 
1.24805 0.0238953 -1.80078 
128 128 130 
1.25586 0.02388 -1.79883 
128 128 130 
1.26074 0.023819 -1.79395 
128 128 130 
1.2666 0.0237579 -1.79004 
128 128 130 
1.27344 0.0237427 -1.78809 
128 128 130 
1.27734 0.0236511 -1.78223 
128 128 130 
1.28125 0.0235748 -1.77637 
128 128 130 
1.28516 0.0234833 -1.76953 
128 128 130 
1.28906 0.023407 -1.76367 
128 128 130 
1.29297 0.0233307 -1.75781 
128 128 130 
1.29688 0.0232391 -1.75098 
128 128 130 
1.30273 0.0231934 -1.74707 
128 128 130 
1.30566 0.0231018 -1.74121 
128 128 130 
1.30957 0.0230255 -1.73438 
128 128 130 
1.31348 0.0229492 -1.72852 
128 128 130 
1.31641 0.0228577 -1.72266 
128 128 130 
1.32129 0.0228119 -1.71875 
128 128 130 
1.3252 0.0227203 -1.71191 
128 128 130 
1.33008 0.0226746 -1.70801 
128 128 130 
1.33496 0.0226135 -1.7041 
128 128 130 
1.34082 0.022583 -1.70215 
128 128 130 
1.34766 0.0225677 -1.7002 
128 128 130 
1.35547 0.0225677 -1.7002 
128 128 130 
1.36328 0.0225677 -1.7002 
128 128 130 
1.37109 0.0225677 -1.7002 
128 128 130 
1.38086 0.022583 -1.70215 
128 128 130 
1.38965 0.022583 -1.70215 
128 128 130 
1.39551 0.0225677 -1.7002 
128 128 130 
1.40234 0.0225372 -1.69824 
128 128 130 
1.40625 0.0224762 -1.69336 
128 128 130 
1.41113 0.0224304 -1.68945 
128 128 130 
1.41406 0.0223389 -1.68359 
128 128 130 
1.41699 0.0222626 -1.67676 
128 128 130 
1.4209 0.0222015 -1.67285 
128 128 130 
1.42578 0.0221558 -1.66895 
128 128 130 
1.43164 0.0221252 -1.66699 
128 128 130 
1.4375 0.0220947 -1.66504 
128 128 130 
1.44531 0.0220947 -1.66504 
128 128 130 
1.45215 0.0220642 -1.66309 
128 128 130 
1.45996 0.0220642 -1.66309 
128 128 130 
1.46387 0.0220184 -1.65918 
128 128 130 
1.46973 0.0219879 -1.65625 
128 128 130 
1.47461 0.0219421 -1.65234 
128 128 130 
1.48047 0.0219116 -1.65039 
132 132 132 
1.48828 0.0219116 -1.65039 
132 132 132 
1.49805 0.0219421 -1.65234 
132 132 132 
1.5127 0.022049 -1.66113 
132 132 132 
1.53223 0.0222015 -1.67285 
132 132 132 
1.55859 0.0224762 -1.69336 
132 132 132 
1.5957 0.0228882 -1.72461 
132 132 132 
1.64355 0.023468 -1.76758 
132 132 132 
1.7041 0.0242004 -1.82324 
132 132 132 
1.77832 0.0251312 -1.89355 
132 132 132 
1.85938 0.0261383 -1.96875 
132 132 132 
1.9541 0.0273438 -2.05859 
132 132 132 
2.04883 0.0285187 -2.14844 
132 132 132 
2.11914 0.0293579 -2.21094 
132 132 132 
2.17578 0.0299835 -2.25781 
132 132 132 
2.21484 0.0303955 -2.28906 
132 132 132 
2.24023 0.0305939 -2.30469 
132 132 132 
2.25781 0.0306702 -2.31055 
132 132 132 
2.26367 0.0306091 -2.30664 
132 132 132 
2.26953 0.0305328 -2.29883 
132 132 132 
2.26953 0.0303955 -2.28906 
132 132 132 
2.27148 0.0302887 -2.28125 
132 132 132 
2.25195 0.0298767 -2.25 
132 132 132 
2.25586 0.0298004 -2.24414 
132 132 132 
-2.40234 0.0335083 -3.92383 
133 138 143 
-2.36914 0.0332947 -3.89844 
146 152 154 
-2.3457 0.0332642 -3.89258 
139 145 145 
-2.32227 0.0331726 -3.88477 
131 132 128 
-2.29688 0.0330505 -3.87109 
107 88 84 
-2.27344 0.03302 -3.86523 
145 125 117 
-2.25781 0.03302 -3.86719 
176 165 156 
-2.24414 0.0331116 -3.87695 
190 179 172 
-2.23047 0.0331726 -3.88477 
188 181 173 
-2.21875 0.0332642 -3.89453 
182 175 167 
-2.20898 0.0333862 -3.91016 
187 176 169 
-2.18945 0.0333862 -3.91016 
184 173 166 
-2.13281 0.0330811 -3.87305 
191 180 171 
-2.10352 0.0329285 -3.85352 
188 177 168 
-2.07422 0.0327148 -3.83203 
189 178 169 
-2.03906 0.0324707 -3.80078 
187 179 167 
-2.00781 0.0322571 -3.77539 
186 178 166 
-1.98828 0.0322266 -3.77148 
197 187 175 
-1.96094 0.0320435 -3.75391 
194 179 167 
-1.93555 0.0319214 -3.73828 
148 129 112 
-1.92285 0.0320129 -3.75 
118 98 78 
-1.90137 0.0319519 -3.74023 
105 85 65 
-1.88184 0.0319214 -3.73633 
115 91 68 
-1.86328 0.0319214 -3.73633 
118 94 71 
-1.84766 0.0319519 -3.74023 
101 78 57 
-1.83398 0.0320129 -3.75 
94 70 56 
-1.82031 0.0321045 -3.75781 
106 93 82 
-1.80664 0.0321655 -3.76563 
123 124 113 
-1.79297 0.0322266 -3.77344 
118 116 104 
-1.77832 0.0322876 -3.7793 
106 106 100 
-1.75781 0.0322571 -3.77539 
82 82 76 
-1.72363 0.0319214 -3.73828 
93 94 88 
-1.70313 0.0318909 -3.73242 
89 89 83 
-1.68066 0.0317993 -3.72266 
90 90 84 
-1.66211 0.0317688 -3.7207 
87 87 81 
-1.6377 0.0316467 -3.70508 
86 87 81 
-1.62402 0.0317383 -3.71484 
81 85 80 
-1.60156 0.0316162 -3.70117 
82 85 84 
-1.57617 0.0314941 -3.68555 
81 85 80 
-1.55469 0.0314026 -3.67578 
80 84 77 
-1.52832 0.0312195 -3.6543 
80 84 77 
-1.50098 0.0310059 -3.63086 
83 84 80 
-1.47266 0.0307617 -3.60156 
82 82 78 
-1.44141 0.0304718 -3.56641 
80 80 80 
-1.41016 0.0301666 -3.53125 
71 71 71 
-1.37891 0.0298462 -3.49414 
62 65 66 
-1.35449 0.0296783 -3.47461 
58 61 64 
-1.33594 0.0296478 -3.46875 
55 58 59 
-1.32031 0.0296631 -3.4707 
52 55 56 
-1.30664 0.0297089 -3.47852 
57 60 61 
-1.2959 0.0298462 -3.49414 
58 61 62 
-1.28418 0.029953 -3.50586 
60 63 64 
-1.26172 0.0298157 -3.49023 
57 63 63 
-1.25488 0.0300446 -3.51758 
61 67 67 
-1.24707 0.0302582 -3.54102 
63 69 69 
-1.23438 0.030365 -3.55469 
65 68 69 
-1.2207 0.030426 -3.5625 
64 67 68 
-1.20313 0.0304108 -3.56055 
73 73 75 
-1.18164 0.030304 -3.54688 
74 73 73 
-1.16602 0.0303345 -3.54883 
76 71 69 
-1.14258 0.0301666 -3.53125 
102 93 88 
-1.12012 0.0299988 -3.50977 
151 141 139 
-1.09766 0.0298462 -3.49414 
176 165 160 
-1.07715 0.0297546 -3.48242 
171 157 151 
-1.05566 0.0295868 -3.46289 
182 168 160 
-1.03516 0.02948 -3.45117 
182 171 162 
-1.01074 0.0292511 -3.42383 
183 172 163 
-0.989746 0.0290985 -3.40625 
182 171 162 
-0.967285 0.0289001 -3.38281 
182 171 162 
-0.945313 0.0287323 -3.36328 
180 169 160 
-0.920898 0.0284729 -3.33203 
178 167 158 
-0.892578 0.0280609 -3.28516 
169 160 151 
-0.864746 0.0276794 -3.24023 
169 155 147 
-0.839844 0.027359 -3.20313 
112 102 100 
-0.818359 0.0271454 -3.17773 
80 65 64 
-0.79834 0.0269928 -3.1582 
136 118 109 
-0.779297 0.0268555 -3.14258 
144 129 119 
-0.76123 0.0267334 -3.12891 
148 135 124 
-0.742188 0.0265808 -3.11133 
146 135 126 
-0.722656 0.026413 -3.0918 
135 120 110 
-0.703125 0.0262146 -3.06836 
138 120 109 
-0.683594 0.0260162 -3.04688 
145 127 116 
-0.665039 0.0258636 -3.02734 
137 119 108 
-0.646973 0.0257263 -3.01172 
144 128 107 
-0.630859 0.02565 -3.00195 
135 119 96 
-0.616211 0.0256348 -3 
129 114 88 
-0.603516 0.0256958 -3.00781 
120 108 81 
-0.592285 0.0258179 -3.02148 
110 93 68 
-0.581543 0.0259857 -3.04102 
113 95 73 
-0.571777 0.0261993 -3.06641 
116 100 79 
-0.5625 0.0264282 -3.09375 
101 85 64 
-0.551758 0.0266418 -3.11719 
55 40 28 
-0.541016 0.026825 -3.14063 
37 22 12 
-0.529297 0.0269928 -3.1582 
122 123 114 
-0.516113 0.0270844 -3.16992 
119 119 115 
-0.501953 0.0271301 -3.17578 
104 101 98 
-0.487061 0.0271301 -3.17578 
84 84 80 
-0.471924 0.0271149 -3.17383 
86 87 83 
-0.456299 0.0270844 -3.16992 
87 88 84 
-0.441406 0.0270996 -3.17188 
86 87 83 
-0.427734 0.0271606 -3.17969 
87 87 87 
-0.415039 0.0273285 -3.19727 
87 87 87 
-0.403809 0.0275879 -3.22852 
86 86 86 
-0.392822 0.0279083 -3.26563 
86 86 86 
-0.381592 0.0282135 -3.30273 
83 83 83 
-0.369629 0.0285034 -3.33594 
82 83 79 
-0.356201 0.0286713 -3.35742 
80 81 77 
-0.341553 0.0287933 -3.37109 
33 32 32 
-0.326416 0.0288696 -3.37891 
30 30 32 
-0.310791 0.0288849 -3.38086 
33 33 35 
-0.294922 0.0289001 -3.38281 
31 31 31 
-0.279297 0.0289612 -3.38867 
34 35 31 
-0.263672 0.0289917 -3.39258 
37 37 37 
-0.247803 0.029007 -3.39648 
81 84 83 
-0.231934 0.0290222 -3.39844 
110 116 114 
-0.215576 0.0289917 -3.39258 
115 119 114 
-0.199219 0.0289612 -3.38867 
119 122 121 
-0.182861 0.0289001 -3.38281 
118 124 122 
-0.166626 0.0288544 -3.37695 
125 131 131 
-0.150269 0.0287781 -3.36914 
115 121 121 
-0.133911 0.0286865 -3.35938 
102 105 106 
-0.117493 0.0285645 -3.34375 
107 113 115 
-0.100952 0.0283661 -3.32031 
135 143 142 
-0.0842896 0.0280457 -3.2832 
132 143 141 
-0.067627 0.0275879 -3.22852 
119 127 126 
-0.051178 0.0269775 -3.15625 
126 134 133 
-0.0352173 0.0262146 -3.06836 
127 133 133 
-0.0200958 0.0254211 -2.97656 
127 133 133 
-0.00583267 0.0246582 -2.88477 
132 138 138 
0.00761795 0.0240173 -2.8125 
68 64 65 
0.0205231 0.0235596 -2.75781 
118 109 100 
0.0332947 0.0233765 -2.73633 
103 94 85 
0.0463562 0.0234222 -2.74219 
90 83 73 
0.0599976 0.0236816 -2.77344 
93 86 76 
0.074646 0.0242004 -2.83203 
137 138 132 
0.0905762 0.0248871 -2.91211 
127 135 134 
0.106873 0.0254822 -2.98242 
132 138 140 
0.123291 0.0259705 -3.03906 
131 137 139 
0.139526 0.0263214 -3.08008 
133 139 139 
0.155273 0.0265198 -3.10352 
136 139 138 
0.170532 0.0265961 -3.11328 
134 131 128 
0.191162 0.0274658 -3.21484 
163 156 148 
0.206787 0.0275116 -3.2207 
183 175 163 
0.221191 0.0274048 -3.20898 
183 173 159 
0.234741 0.0272217 -3.18555 
184 172 156 
0.246704 0.026886 -3.14648 
184 172 154 
0.251221 0.0258331 -3.02344 
183 171 153 
0.262451 0.0255127 -2.98633 
187 173 156 
0.272705 0.0251617 -2.94531 
187 170 154 
0.282471 0.0247955 -2.90234 
187 170 154 
0.291504 0.0244141 -2.85742 
187 170 154 
0.300537 0.0240326 -2.81445 
186 169 153 
0.308838 0.0236664 -2.77148 
188 171 155 
0.317627 0.0233307 -2.73242 
185 168 152 
0.32666 0.0230713 -2.70117 
187 170 152 
0.336182 0.0228424 -2.67383 
186 169 151 
0.34668 0.0227051 -2.6582 
183 166 148 
0.357666 0.0225983 -2.64453 
182 165 147 
0.368896 0.022522 -2.63672 
179 162 144 
0.381104 0.0225067 -2.63477 
182 165 147 
0.393555 0.0225067 -2.63477 
178 161 145 
0.40625 0.022522 -2.63672 
140 125 115 
0.419922 0.022583 -2.64258 
77 62 61 
0.434082 0.0226746 -2.6543 
70 58 58 
0.448242 0.0227509 -2.66406 
72 67 65 
0.463135 0.0228577 -2.67578 
76 71 69 
0.477783 0.0229645 -2.6875 
70 64 66 
0.493652 0.0231018 -2.70508 
65 64 64 
0.505371 0.023056 -2.69922 
66 66 66 
0.517578 0.0230408 -2.69727 
65 65 67 
0.529297 0.0229797 -2.68945 
64 64 66 
0.540527 0.022934 -2.68359 
58 58 60 
0.551758 0.0228729 -2.67773 
61 61 63 
0.564941 0.0229034 -2.67969 
52 52 54 
0.580078 0.0229797 -2.68945 
59 54 50 
0.597168 0.0231628 -2.71094 
103 86 68 
0.617676 0.0234375 -2.74414 
37 27 25 
0.640625 0.0238037 -2.78711 
138 138 134 
0.664551 0.0242157 -2.83398 
87 79 76 
0.689453 0.0246124 -2.88086 
84 84 78 
0.713867 0.0250092 -2.92773 
89 89 85 
0.737793 0.0253448 -2.9668 
91 88 85 
0.759766 0.0256195 -2.99805 
89 90 86 
0.781738 0.0258636 -3.02734 
85 89 84 
0.803223 0.0260925 -3.05469 
90 90 84 
0.82373 0.0262909 -3.07617 
89 89 83 
0.84375 0.0264587 -3.09766 
89 89 83 
0.863281 0.0266266 -3.11523 
91 91 85 
0.882813 0.0267639 -3.13281 
91 91 85 
0.901855 0.026886 -3.14648 
94 94 88 
0.921387 0.0270233 -3.16406 
116 116 112 
0.940918 0.0271454 -3.17773 
118 118 114 
0.959961 0.0272675 -3.19141 
124 124 118 
0.97998 0.0274048 -3.20898 
125 125 119 
1 0.0275574 -3.22461 
136 136 130 
1.02148 0.02771 -3.24414 
138 138 132 
1.04199 0.0278473 -3.25977 
143 144 138 
1.06348 0.0280151 -3.2793 
139 140 134 
1.08594 0.0281982 -3.30078 
140 140 134 
1.11133 0.0284424 -3.33008 
138 138 132 
1.13867 0.0287476 -3.36523 
133 137 132 
1.16895 0.0290985 -3.40625 
134 138 133 
1.20215 0.0294952 -3.45313 
135 136 132 
1.23633 0.0299377 -3.50391 
132 132 128 
1.27148 0.0303955 -3.55859 
132 132 128 
1.30566 0.0308075 -3.60547 
131 132 128 
1.33691 0.0311279 -3.64453 
131 132 128 
1.36426 0.0313416 -3.67188 
133 133 129 
1.38672 0.0314636 -3.68359 
138 138 134 
1.40332 0.0314331 -3.68164 
136 136 132 
1.40625 0.0311279 -3.64453 
136 136 132 
1.42383 0.0311279 -3.64453 
135 135 135 
1.43066 0.0309296 -3.61914 
135 135 135 
1.43945 0.0307312 -3.59766 
138 138 138 
1.44922 0.0305939 -3.58008 
136 136 136 
1.46191 0.0305023 -3.57031 
139 140 136 
1.47852 0.0304871 -3.56836 
141 141 137 
1.49707 0.0305176 -3.57227 
138 138 134 
1.51758 0.0305939 -3.58008 
140 141 137 
1.53809 0.0306854 -3.5918 
137 136 136 
1.55957 0.0307617 -3.60156 
139 138 138 
1.58105 0.030838 -3.60938 
137 136 136 
1.59961 0.0308685 -3.61328 
139 138 138 
1.61719 0.0308838 -3.61523 
139 139 139 
1.63477 0.0308838 -3.61523 
139 139 139 
1.64941 0.0308533 -3.61133 
139 139 139 
1.66602 0.030838 -3.60938 
139 139 139 
1.68164 0.0308075 -3.60547 
140 140 140 
1.69629 0.0307617 -3.60156 
141 140 140 
1.71191 0.0307465 -3.59961 
142 142 144 
1.72754 0.0307159 -3.5957 
137 136 136 
1.74219 0.0306854 -3.5918 
140 139 139 
1.75879 0.0306549 -3.58789 
144 143 143 
1.77539 0.0306549 -3.58789 
143 143 143 
1.79199 0.0306549 -3.58789 
140 140 140 
1.80957 0.0306549 -3.58789 
138 141 140 
1.82617 0.0306549 -3.58789 
135 143 142 
1.84375 0.0306549 -3.58789 
135 143 144 
1.86133 0.0306854 -3.5918 
135 141 143 
1.87598 0.0306396 -3.58594 
140 143 144 
1.89551 0.0306854 -3.5918 
140 146 146 
1.91211 0.0306854 -3.5918 
141 147 147 
1.93164 0.0307159 -3.5957 
140 143 144 
1.94531 0.0306549 -3.58789 
141 144 145 
1.95801 0.0305939 -3.58008 
144 144 144 
1.96875 0.0305023 -3.57031 
142 142 142 
1.98145 0.030426 -3.5625 
143 143 145 
1.99219 0.0303497 -3.55273 
141 144 145 
2.00391 0.0302734 -3.54297 
142 145 148 
2.01563 0.0301971 -3.53516 
145 145 147 
2.02734 0.0301208 -3.52539 
142 145 146 
2.04102 0.0300598 -3.51953 
143 146 149 
2.05273 0.0299988 -3.50977 
143 143 147 
2.06641 0.029953 -3.50586 
141 144 147 
2.07813 0.0299072 -3.5 
140 143 146 
2.09375 0.0298767 -3.49609 
145 144 148 
2.10547 0.0298157 -3.49023 
143 142 146 
2.11914 0.0297852 -3.48633 
144 143 147 
2.13281 0.0297241 -3.48047 
143 143 147 
2.14453 0.0296631 -3.4707 
141 144 147 
2.1543 0.0295715 -3.46094 
142 141 150 
2.16211 0.0294495 -3.44727 
143 142 149 
2.16797 0.0293121 -3.42969 
140 142 148 
2.16992 0.029129 -3.41016 
136 142 144 
2.17383 0.0289612 -3.38867 
138 144 144 
2.17578 0.0287781 -3.36914 
137 140 143 
2.17969 0.0286102 -3.34766 
137 140 143 
2.18164 0.0284271 -3.32813 
140 142 148 
2.18555 0.0282745 -3.30859 
135 141 143 
2.18945 0.0281372 -3.29297 
141 144 145 
2.18945 0.0279388 -3.26953 
135 138 139 
1.24219 0.0155258 -1.81738 
103 102 104 
1.24512 0.0154572 -1.80859 
103 102 104 
1.25 0.0154037 -1.80273 
103 102 104 
1.25586 0.0153656 -1.79883 
103 102 104 
1.2627 0.0153503 -1.79688 
103 102 104 
1.26855 0.0153122 -1.79199 
103 102 104 
1.27246 0.0152588 -1.78613 
103 102 104 
1.27734 0.0152283 -1.78223 
103 102 104 
1.28027 0.015152 -1.77344 
103 102 104 
1.28418 0.0150986 -1.76758 
103 102 104 
1.28809 0.0150528 -1.76172 
103 102 104 
1.29199 0.0149994 -1.75488 
103 102 104 
1.2959 0.014946 -1.74902 
103 102 104 
1.29883 0.0148926 -1.74316 
103 102 104 
1.30469 0.0148544 -1.73926 
103 102 104 
1.30762 0.014801 -1.73242 
103 102 104 
1.31152 0.0147476 -1.72656 
103 102 104 
1.31641 0.0147171 -1.72266 
103 102 104 
1.32129 0.014679 -1.71875 
103 102 104 
1.32617 0.0146484 -1.71387 
103 102 104 
1.33105 0.0146103 -1.70996 
103 102 104 
1.33789 0.014595 -1.70801 
103 102 104 
1.34473 0.0145721 -1.70605 
103 102 104 
1.35059 0.0145569 -1.7041 
103 102 104 
1.3584 0.0145569 -1.7041 
103 102 104 
1.36816 0.0145721 -1.70605 
103 102 104 
1.37695 0.0145721 -1.70605 
103 102 104 
1.38672 0.014595 -1.70801 
103 102 104 
1.39453 0.014595 -1.70801 
103 102 104 
1.40039 0.0145721 -1.70605 
103 102 104 
1.40723 0.0145569 -1.7041 
103 102 104 
1.41211 0.0145187 -1.7002 
103 102 104 
1.41504 0.014473 -1.69336 
103 102 104 
1.41797 0.0144196 -1.6875 
103 102 104 
1.42188 0.0143814 -1.68359 
103 102 104 
1.4248 0.014328 -1.67676 
103 102 104 
1.42871 0.0142975 -1.67285 
103 102 104 
1.43555 0.0142746 -1.6709 
103 102 104 
1.44141 0.0142593 -1.66895 
103 102 104 
1.44922 0.0142593 -1.66895 
103 102 104 
1.45508 0.0142441 -1.66699 
103 102 104 
1.46289 0.0142441 -1.66699 
103 102 104 
1.46973 0.0142212 -1.66504 
103 102 104 
1.47559 0.0142059 -1.66309 
103 102 104 
1.47949 0.0141678 -1.65918 
103 102 104 
1.48535 0.0141525 -1.65625 
103 102 104 
1.49316 0.0141525 -1.65625 
103 102 104 
1.50488 0.0141907 -1.66113 
103 102 104 
1.51855 0.0142441 -1.66699 
103 102 104 
1.54004 0.0143661 -1.68164 
103 102 104 
1.56836 0.0145569 -1.7041 
103 102 104 
1.6084 0.0148544 -1.73926 
103 102 104 
1.66113 0.0152588 -1.78613 
103 102 104 
1.72949 0.0158081 -1.84961 
103 102 104 
1.81152 0.0164642 -1.92773 
103 102 104 
1.90137 0.0172119 -2.01367 
103 102 104 
1.99512 0.0179596 -2.10156 
103 102 104 
2.08398 0.0186615 -2.18555 
103 102 104 
2.15039 0.0191803 -2.24414 
103 102 104 
2.20117 0.0195313 -2.28516 
103 102 104 
2.23633 0.0197296 -2.31055 
103 102 104 
2.25781 0.0198364 -2.32227 
103 102 104 
2.27344 0.0198822 -2.32617 
103 102 104 
2.28125 0.0198364 -2.32227 
103 102 104 
2.2832 0.0197754 -2.31445 
103 102 104 
2.28516 0.0196991 -2.30664 
103 102 104 
2.28906 0.0196228 -2.29688 
111 107 108 
2.29688 0.0196075 -2.29492 
111 107 108 
2.26758 0.0192566 -2.25391 
111 107 108 
-2.38867 0.0148849 -3.9043 
137 139 145 
-2.36133 0.0148163 -3.88672 
128 130 136 
-2.34375 0.0148239 -3.88867 
101 103 111 
-2.31641 0.0147629 -3.87305 
96 96 100 
-2.28711 0.0147018 -3.85547 
136 139 140 
-2.26758 0.0146866 -3.85156 
146 146 148 
-2.24805 0.0146866 -3.85156 
70 53 55 
-2.23633 0.0147247 -3.86328 
85 67 56 
-2.22461 0.0147629 -3.87305 
91 78 65 
-2.21094 0.014801 -3.88281 
89 72 54 
-2.18945 0.0147705 -3.875 
94 75 60 
-2.18359 0.0148544 -3.89648 
104 86 75 
-2.1582 0.0148163 -3.88672 
144 132 116 
-2.13281 0.0147705 -3.875 
176 159 145 
-2.10352 0.0146866 -3.85156 
140 126 111 
-2.06836 0.0145798 -3.82227 
124 100 84 
-2.03516 0.0144577 -3.79297 
116 93 72 
-2 0.0143433 -3.76172 
125 108 83 
-1.97559 0.0142822 -3.74805 
125 107 85 
-1.94824 0.0142136 -3.72852 
109 91 71 
-1.92188 0.0141525 -3.71289 
83 74 57 
-1.90039 0.014122 -3.70313 
84 74 62 
-1.87695 0.0140839 -3.69336 
60 49 40 
-1.8584 0.0140762 -3.69141 
124 113 104 
-1.84082 0.0140762 -3.69141 
111 109 99 
-1.8252 0.0140839 -3.69336 
94 92 82 
-1.81152 0.0141144 -3.70117 
86 83 80 
-1.79688 0.0141373 -3.70898 
91 91 87 
-1.7832 0.0141678 -3.7168 
90 90 86 
-1.76758 0.014183 -3.7207 
89 89 85 
-1.75 0.014183 -3.7207 
84 85 81 
-1.7334 0.0141907 -3.72266 
87 87 83 
-1.69434 0.0140228 -3.67773 
84 85 81 
-1.67285 0.0139771 -3.66602 
86 87 83 
-1.65039 0.0139389 -3.65625 
89 90 86 
-1.63086 0.013916 -3.65039 
84 85 81 
-1.60742 0.0138626 -3.63672 
82 82 82 
-1.59766 0.0139313 -3.6543 
84 84 84 
-1.57324 0.0138702 -3.63867 
84 83 83 
-1.54883 0.0138092 -3.62109 
86 86 86 
-1.52344 0.0137329 -3.60156 
83 83 83 
-1.49609 0.0136337 -3.57617 
86 86 86 
-1.46973 0.0135498 -3.55469 
84 84 84 
-1.43945 0.0134201 -3.52148 
84 84 84 
-1.40625 0.0132675 -3.48047 
82 82 82 
-1.375 0.0131226 -3.44336 
55 55 59 
-1.34375 0.0129852 -3.40625 
47 47 49 
-1.32031 0.0129089 -3.38477 
51 54 55 
-1.30273 0.0128937 -3.38086 
64 67 68 
-1.28809 0.0129089 -3.38477 
63 66 67 
-1.27539 0.0129471 -3.39648 
66 66 68 
-1.26758 0.0130234 -3.41602 
69 69 71 
-1.25879 0.0130997 -3.4375 
65 65 65 
-1.25 0.0131836 -3.45703 
76 72 73 
-1.22852 0.0131226 -3.44336 
74 65 68 
-1.21973 0.0132141 -3.46484 
82 74 73 
-1.20898 0.0132751 -3.48242 
128 114 108 
-1.19531 0.013298 -3.48828 
168 156 154 
-1.17676 0.0132751 -3.48242 
177 166 161 
-1.14941 0.0131607 -3.45117 
176 163 152 
-1.13086 0.0131302 -3.44531 
167 152 142 
-1.10742 0.0130386 -3.41992 
180 170 158 
-1.08301 0.0129471 -3.39648 
178 165 154 
-1.06055 0.0128708 -3.375 
180 167 156 
-1.04004 0.0128098 -3.36133 
182 169 158 
-1.01953 0.0127563 -3.3457 
186 173 162 
-1.00098 0.0127182 -3.33594 
185 174 165 
-0.980469 0.0126572 -3.32031 
183 172 163 
-0.960938 0.0126114 -3.30664 
184 173 164 
-0.939941 0.0125351 -3.28906 
182 171 162 
-0.918945 0.0124588 -3.26758 
185 171 163 
-0.896484 0.0123672 -3.24414 
184 170 162 
-0.871582 0.0122299 -3.20898 
177 166 157 
-0.847656 0.0121078 -3.17578 
174 165 156 
-0.82666 0.0120239 -3.15234 
102 82 74 
-0.807617 0.0119553 -3.13672 
98 77 64 
-0.789551 0.0119095 -3.125 
147 128 113 
-0.772949 0.011879 -3.11523 
153 136 122 
-0.755859 0.0118484 -3.10742 
163 146 130 
-0.737793 0.011795 -3.09375 
149 135 120 
-0.719238 0.011734 -3.07617 
145 128 112 
-0.699707 0.0116425 -3.05469 
139 121 101 
-0.680176 0.0115585 -3.03125 
115 97 77 
-0.661621 0.0114899 -3.01367 
110 92 72 
-0.644043 0.0114212 -2.99609 
109 92 67 
-0.627441 0.0113831 -2.98633 
108 93 67 
-0.613281 0.0113831 -2.98633 
93 80 56 
-0.600586 0.0114059 -2.99219 
72 58 39 
-0.589355 0.011467 -3.00781 
58 43 33 
-0.57959 0.0115509 -3.0293 
54 45 38 
-0.569824 0.0116425 -3.05469 
67 65 57 
-0.560059 0.0117493 -3.08008 
96 97 91 
-0.549805 0.0118408 -3.10547 
91 94 93 
-0.538086 0.0119095 -3.125 
82 85 84 
-0.525391 0.0119476 -3.13477 
84 85 81 
-0.510254 0.0119476 -3.13477 
84 85 81 
-0.494629 0.0119247 -3.12891 
86 86 86 
-0.477295 0.0118637 -3.11133 
84 84 84 
-0.459961 0.011795 -3.09375 
83 84 80 
-0.442871 0.011734 -3.07617 
86 87 83 
-0.427002 0.0116882 -3.06641 
84 88 83 
-0.412598 0.0116959 -3.06836 
84 88 83 
-0.400635 0.0117722 -3.08789 
83 83 83 
-0.389893 0.0118866 -3.11719 
83 83 83 
-0.380371 0.0120544 -3.16211 
82 82 82 
-0.37085 0.0122299 -3.20898 
84 84 84 
-0.360107 0.0123901 -3.25 
82 82 82 
-0.348145 0.0125122 -3.2832 
76 83 77 
-0.334717 0.0125961 -3.30273 
29 29 29 
-0.320557 0.0126495 -3.31836 
29 29 31 
-0.305664 0.0126801 -3.32617 
26 26 28 
-0.290527 0.0127029 -3.33203 
27 28 24 
-0.274902 0.0127182 -3.33594 
17 18 14 
-0.259277 0.0127182 -3.33594 
13 14 10 
-0.243164 0.0127029 -3.33203 
105 108 107 
-0.226685 0.0126648 -3.32227 
129 135 137 
-0.210083 0.0126114 -3.30664 
133 139 139 
-0.193481 0.0125427 -3.29102 
77 79 87 
-0.177002 0.0124817 -3.27344 
122 127 132 
-0.160767 0.0124283 -3.25977 
133 141 140 
-0.144775 0.0123749 -3.24609 
125 133 132 
-0.128784 0.0123215 -3.23047 
124 132 131 
-0.112976 0.0122528 -3.21484 
123 131 132 
-0.0970459 0.0121689 -3.19141 
125 133 134 
-0.0810547 0.0120392 -3.15625 
123 131 132 
-0.0650635 0.0118408 -3.10547 
125 133 132 
-0.0492859 0.0115891 -3.03906 
126 132 132 
-0.0339661 0.0112839 -2.95898 
127 133 135 
-0.0193787 0.0109482 -2.87109 
132 138 140 
-0.00563431 0.0106277 -2.78711 
110 114 109 
0.00735855 0.0103531 -2.71484 
81 73 70 
0.0198212 0.0101547 -2.66406 
115 107 95 
0.0321045 0.0100555 -2.63672 
103 93 81 
0.0446167 0.0100632 -2.63867 
94 87 77 
0.0575867 0.0101471 -2.66211 
92 85 75 
0.0712891 0.0103149 -2.70508 
134 132 124 
0.0859375 0.0105362 -2.76367 
132 133 129 
0.101013 0.0107498 -2.82031 
138 139 135 
0.116211 0.0109253 -2.86523 
154 150 143 
0.131104 0.0110397 -2.89648 
182 173 164 
0.14563 0.0111008 -2.91211 
185 178 161 
0.159668 0.011116 -2.91602 
183 174 157 
0.172241 0.0110397 -2.89648 
186 174 158 
0.187012 0.0111008 -2.91211 
184 172 156 
0.200195 0.0110703 -2.9043 
185 171 154 
0.213013 0.0110245 -2.89258 
185 171 154 
0.224609 0.0109253 -2.86523 
185 171 154 
0.237061 0.0108719 -2.85156 
184 170 153 
0.248535 0.0107803 -2.82813 
185 171 154 
0.259277 0.0106735 -2.79883 
183 166 150 
0.269531 0.0105515 -2.76758 
186 169 153 
0.279053 0.0104294 -2.73633 
186 169 153 
0.288574 0.0103073 -2.70313 
188 171 153 
0.297607 0.0101776 -2.66992 
189 172 154 
0.306885 0.0100708 -2.64063 
188 171 155 
0.316406 0.00997162 -2.61719 
188 171 155 
0.32666 0.00990295 -2.59766 
183 166 150 
0.337646 0.00986481 -2.58789 
180 163 147 
0.348877 0.00984192 -2.58203 
187 170 156 
0.36084 0.00983429 -2.58008 
111 97 91 
0.373047 0.00983429 -2.58008 
77 68 71 
0.385986 0.00984955 -2.58398 
69 65 68 
0.39917 0.00987244 -2.58984 
65 65 67 
0.412354 0.00989532 -2.5957 
62 65 66 
0.42627 0.00993347 -2.60547 
60 66 66 
0.44043 0.00997162 -2.61719 
58 64 64 
0.454834 0.010025 -2.62891 
60 66 66 
0.46875 0.0100555 -2.63672 
57 63 65 
0.482422 0.0100784 -2.64258 
58 64 66 
0.494385 0.0100708 -2.64063 
60 66 66 
0.505859 0.0100555 -2.63672 
57 60 61 
0.517578 0.0100327 -2.63086 
55 61 61 
0.52832 0.00999451 -2.62305 
56 59 60 
0.539551 0.00997925 -2.61914 
52 55 56 
0.552734 0.00998688 -2.62109 
42 45 46 
0.567383 0.0100403 -2.63281 
44 47 48 
0.585449 0.0101318 -2.6582 
50 50 50 
0.605957 0.0102615 -2.69336 
55 54 56 
0.629883 0.0104523 -2.74219 
82 85 86 
0.655273 0.0106583 -2.79492 
86 87 81 
0.682129 0.0108719 -2.85156 
91 91 85 
0.708008 0.0110626 -2.90234 
87 87 81 
0.732422 0.0112305 -2.94531 
89 89 83 
0.755859 0.0113678 -2.98242 
88 88 82 
0.777344 0.0114822 -3.01172 
90 91 85 
0.79834 0.0115738 -3.03516 
88 89 85 
0.817871 0.0116501 -3.05664 
90 91 87 
0.836914 0.0117111 -3.07227 
94 95 91 
0.855957 0.0117798 -3.08984 
116 116 112 
0.874512 0.0118332 -3.10352 
119 119 115 
0.893555 0.0118866 -3.11719 
122 122 118 
0.912598 0.01194 -3.13281 
124 124 120 
0.932129 0.012001 -3.14844 
122 122 118 
0.952637 0.0120773 -3.16797 
136 136 132 
0.973145 0.012146 -3.18555 
136 137 133 
0.994141 0.0122147 -3.20508 
138 139 135 
1.01465 0.0122833 -3.22266 
139 140 136 
1.03711 0.0123672 -3.24414 
138 139 133 
1.05859 0.0124435 -3.26367 
136 140 133 
1.08301 0.0125427 -3.29102 
138 139 135 
1.1084 0.0126572 -3.32031 
132 133 129 
1.13672 0.0127945 -3.35742 
98 102 95 
1.16797 0.01297 -3.40234 
142 143 139 
1.20117 0.0131607 -3.45117 
132 132 134 
1.23633 0.0133591 -3.50391 
129 130 126 
1.27148 0.0135651 -3.55859 
126 127 123 
1.30566 0.0137482 -3.60547 
128 129 125 
1.33691 0.0138931 -3.64453 
130 131 127 
1.36328 0.0139847 -3.66992 
133 133 129 
1.38477 0.0140305 -3.67969 
135 136 132 
1.40039 0.0140076 -3.67578 
136 137 133 
1.41211 0.0139465 -3.6582 
137 137 133 
1.41016 0.0137634 -3.60938 
136 136 132 
1.42676 0.0137634 -3.60938 
130 134 129 
1.43457 0.0136719 -3.58594 
131 135 130 
1.44629 0.0136185 -3.57227 
136 137 133 
1.46094 0.0135956 -3.56641 
139 140 136 
1.47754 0.0135956 -3.56641 
136 135 135 
1.49805 0.0136261 -3.57422 
137 137 133 
1.51953 0.0136719 -3.58594 
136 136 132 
1.54199 0.0137177 -3.59961 
141 141 137 
1.56543 0.0137787 -3.61328 
140 139 139 
1.58691 0.0138168 -3.62305 
140 140 140 
1.60645 0.0138397 -3.63086 
138 138 138 
1.62402 0.0138397 -3.63086 
138 141 140 
1.6416 0.0138397 -3.63086 
138 141 140 
1.65625 0.0138245 -3.625 
140 140 140 
1.6709 0.0138016 -3.61914 
138 138 138 
1.68555 0.0137863 -3.61523 
139 138 138 
1.7002 0.0137634 -3.60938 
143 142 142 
1.71387 0.0137405 -3.60352 
140 139 139 
1.72852 0.01371 -3.59766 
139 135 136 
1.74316 0.0136948 -3.59375 
141 140 140 
1.75879 0.0136795 -3.58789 
140 140 140 
1.77539 0.0136795 -3.58789 
136 139 140 
1.79199 0.0136795 -3.58789 
140 143 144 
1.81055 0.0136871 -3.5918 
136 139 138 
1.82813 0.0136948 -3.59375 
134 140 138 
1.84766 0.01371 -3.59766 
139 145 145 
1.86719 0.0137329 -3.60156 
140 143 142 
1.88574 0.0137482 -3.60547 
141 144 143 
1.9043 0.0137558 -3.60742 
138 141 142 
1.91992 0.0137482 -3.60547 
138 141 142 
1.93555 0.0137405 -3.60352 
140 143 144 
1.94824 0.0137024 -3.5957 
143 143 145 
1.96094 0.0136719 -3.58594 
140 140 144 
1.97363 0.0136414 -3.57813 
142 142 146 
1.98633 0.0136108 -3.57031 
145 144 146 
1.99805 0.0135803 -3.5625 
142 142 144 
2.00977 0.0135498 -3.55469 
136 139 140 
2.02148 0.0135117 -3.54297 
136 139 140 
2.03125 0.0134735 -3.5332 
143 143 147 
2.04297 0.0134277 -3.52344 
140 142 148 
2.05273 0.0133896 -3.51367 
141 144 145 
2.06445 0.0133591 -3.50391 
138 141 142 
2.07813 0.0133362 -3.49805 
138 141 142 
2.08984 0.0133133 -3.49219 
143 146 149 
2.10547 0.013298 -3.48828 
138 141 144 
2.11914 0.0132828 -3.48438 
138 141 144 
2.13477 0.0132751 -3.48242 
139 139 143 
2.14844 0.0132599 -3.47852 
138 138 142 
2.16016 0.0132294 -3.46875 
143 142 149 
2.16992 0.0131912 -3.45898 
142 141 148 
2.17578 0.0131302 -3.44531 
138 140 146 
2.18164 0.0130692 -3.42773 
138 143 148 
2.18359 0.0129852 -3.40625 
138 144 146 
2.1875 0.0129089 -3.38477 
133 139 139 
2.1875 0.0128174 -3.36328 
138 144 146 
2.19141 0.0127411 -3.3418 
138 141 144 
2.19336 0.0126648 -3.32227 
138 141 144 
2.19727 0.0126038 -3.30469 
140 143 144 
2.19336 0.0124817 -3.27344 
142 142 142 
1.26758 0.00711441 -1.86621 
86 82 87 
1.24414 0.00693512 -1.81934 
86 82 87 
1.24707 0.0069046 -1.81055 
86 82 87 
1.25293 0.00688934 -1.80664 
86 82 87 
1.25684 0.00686646 -1.80078 
86 82 87 
1.2627 0.00684738 -1.79688 
86 82 87 
1.26855 0.00683212 -1.79199 
86 82 87 
1.27344 0.00681686 -1.78809 
86 82 87 
1.27637 0.00678635 -1.78027 
86 82 87 
1.28027 0.00676346 -1.77344 
86 82 87 
1.28223 0.00673294 -1.76563 
86 82 87 
1.28613 0.00670624 -1.75977 
86 82 87 
1.29004 0.00668335 -1.75293 
86 82 87 
1.29395 0.00666046 -1.74707 
86 82 87 
1.29785 0.00663757 -1.74121 
86 82 87 
1.30078 0.00661469 -1.73438 
86 82 87 
1.30664 0.00659943 -1.73047 
86 82 87 
1.31152 0.00658417 -1.72656 
86 82 87 
1.31445 0.00655746 -1.7207 
86 82 87 
1.32129 0.00654984 -1.71875 
86 82 87 
1.32617 0.00653458 -1.71387 
86 82 87 
1.33301 0.00652695 -1.71191 
86 82 87 
1.33984 0.00651932 -1.70996 
86 82 87 
1.3457 0.00651169 -1.70801 
86 82 87 
1.35352 0.00651169 -1.70801 
86 82 87 
1.36328 0.00651932 -1.70996 
86 82 87 
1.37207 0.00651932 -1.70996 
86 82 87 
1.38184 0.00652695 -1.71191 
86 82 87 
1.3916 0.00653458 -1.71387 
86 82 87 
1.39941 0.00653458 -1.71387 
86 82 87 
1.40625 0.00652695 -1.71191 
86 82 87 
1.41211 0.00651932 -1.70996 
86 82 87 
1.41699 0.00650406 -1.70605 
86 82 87 
1.41992 0.00648117 -1.7002 
86 82 87 
1.42285 0.00645828 -1.69336 
86 82 87 
1.42578 0.00643158 -1.6875 
86 82 87 
1.42969 0.00641632 -1.68359 
86 82 87 
1.43457 0.00640106 -1.67969 
86 82 87 
1.43848 0.0063858 -1.6748 
86 82 87 
1.44531 0.00637817 -1.67285 
86 82 87 
1.45117 0.00637054 -1.6709 
86 82 87 
1.45898 0.00637054 -1.6709 
86 82 87 
1.46484 0.00636292 -1.66895 
86 82 87 
1.47168 0.00635529 -1.66699 
86 82 87 
1.47949 0.00635529 -1.66699 
86 82 87 
1.48535 0.00634766 -1.66504 
86 82 87 
1.49121 0.00634003 -1.66309 
86 82 87 
1.49902 0.00634003 -1.66309 
86 82 87 
1.51074 0.00635529 -1.66699 
86 82 87 
1.52637 0.0063858 -1.6748 
86 82 87 
1.54688 0.00644302 -1.68945 
86 82 87 
1.57813 0.00653458 -1.71387 
86 82 87 
1.61816 0.00666809 -1.74902 
86 82 87 
1.67676 0.00687408 -1.80273 
86 82 87 
1.75 0.0071373 -1.87207 
86 82 87 
1.83984 0.00746918 -1.95898 
86 82 87 
1.93457 0.0078125 -2.04883 
86 82 87 
2.0293 0.00815582 -2.13867 
86 82 87 
2.11328 0.00844574 -2.21484 
86 82 87 
2.17578 0.00865936 -2.27148 
86 82 87 
2.22266 0.00879669 -2.30859 
86 82 87 
2.25391 0.00888062 -2.32813 
86 82 87 
2.27344 0.00891113 -2.33594 
86 82 87 
2.28516 0.00891876 -2.33789 
86 82 87 
2.29297 0.0089035 -2.33398 
86 82 87 
2.29297 0.00885773 -2.32422 
86 82 87 
2.29688 0.00882721 -2.31641 
86 82 87 
2.29883 0.00879669 -2.30859 
86 82 87 
2.30664 0.00878143 -2.30469 
86 82 87 
2.31641 0.00878143 -2.30469 
86 82 87 
-2.35742 -0.00356293 -3.88086 
140 145 152 
-2.33984 -0.00356483 -3.88281 
140 145 152 
-2.31055 -0.00354576 -3.86328 
139 144 149 
-2.28125 -0.0035305 -3.8457 
138 143 148 
-2.25781 -0.00352097 -3.83594 
134 140 142 
-2.24023 -0.00352287 -3.83789 
93 96 99 
-2.22656 -0.0035305 -3.8457 
93 89 90 
-2.2168 -0.00354195 -3.85742 
76 66 64 
-2.20508 -0.0035553 -3.87305 
80 68 66 
-2.18359 -0.00354958 -3.86719 
71 63 60 
-2.16602 -0.00354958 -3.86719 
58 49 44 
-2.15625 -0.00356483 -3.88281 
54 45 38 
-2.12891 -0.00354767 -3.86523 
62 49 38 
-2.09375 -0.00352097 -3.83594 
53 35 24 
-2.05859 -0.00349236 -3.80273 
53 37 32 
-2.01953 -0.00345802 -3.76563 
52 36 31 
-1.98535 -0.00342751 -3.73242 
59 51 48 
-1.95508 -0.00340462 -3.70898 
80 77 72 
-1.92578 -0.00338364 -3.68555 
92 89 86 
-1.89844 -0.00336647 -3.66602 
90 91 85 
-1.875 -0.00335503 -3.6543 
84 84 78 
-1.85352 -0.0033474 -3.64648 
88 88 82 
-1.83301 -0.00334167 -3.64063 
87 87 83 
-1.81543 -0.00334167 -3.64063 
85 85 79 
-1.7998 -0.00334358 -3.64258 
87 87 81 
-1.78418 -0.0033474 -3.64648 
85 85 79 
-1.76855 -0.00335121 -3.65039 
92 89 86 
-1.75488 -0.00335693 -3.65625 
85 85 81 
-1.73926 -0.00336075 -3.66016 
85 85 81 
-1.72266 -0.00336266 -3.66211 
82 83 79 
-1.70605 -0.00336456 -3.66406 
88 89 85 
-1.68457 -0.00335503 -3.6543 
87 88 84 
-1.66504 -0.00335121 -3.65039 
86 87 83 
-1.64453 -0.00334358 -3.64258 
88 88 84 
-1.62109 -0.00333405 -3.63086 
90 87 84 
-1.5957 -0.00331497 -3.60938 
90 86 87 
-1.57227 -0.00330162 -3.5957 
85 81 82 
-1.54688 -0.00328445 -3.57617 
88 87 87 
-1.52246 -0.00326729 -3.55859 
81 80 80 
-1.49609 -0.00324821 -3.53711 
90 89 89 
-1.46973 -0.00322533 -3.51367 
106 105 107 
-1.43945 -0.00319481 -3.48047 
117 117 119 
-1.4082 -0.00316238 -3.44531 
124 124 128 
-1.375 -0.00312424 -3.40234 
131 131 135 
-1.3418 -0.00308609 -3.36133 
29 32 35 
-1.31445 -0.00305748 -3.33008 
60 59 61 
-1.29102 -0.00304031 -3.31055 
65 61 64 
-1.27344 -0.0030365 -3.30664 
68 64 65 
-1.26074 -0.00304222 -3.3125 
77 69 68 
-1.25 -0.00305557 -3.32813 
103 96 90 
-1.24316 -0.00307655 -3.34961 
162 148 144 
-1.23535 -0.00309753 -3.37305 
175 164 157 
-1.22656 -0.00311661 -3.39258 
171 155 148 
-1.20313 -0.00309563 -3.37109 
175 161 153 
-1.19434 -0.0031147 -3.39063 
180 166 158 
-1.18555 -0.00313377 -3.41211 
175 162 151 
-1.16309 -0.00311852 -3.39648 
179 166 155 
-1.1377 -0.00309181 -3.36719 
182 169 158 
-1.11719 -0.00307846 -3.35156 
180 167 156 
-1.09375 -0.00305939 -3.33203 
185 172 161 
-1.06934 -0.00303268 -3.30273 
184 171 160 
-1.0459 -0.0030098 -3.2793 
186 173 162 
-1.02246 -0.00298882 -3.25586 
185 171 163 
-1.00293 -0.00297546 -3.24219 
184 173 164 
-0.984375 -0.00296402 -3.22852 
185 174 165 
-0.966309 -0.0029583 -3.2207 
188 177 168 
-0.94873 -0.00295067 -3.21289 
188 177 168 
-0.931152 -0.00294304 -3.20508 
185 174 165 
-0.912598 -0.00293159 -3.19141 
184 173 164 
-0.893555 -0.00291824 -3.17773 
185 174 165 
-0.873047 -0.00290108 -3.1582 
183 172 163 
-0.852539 -0.002882 -3.13867 
103 92 83 
-0.833008 -0.00286484 -3.11914 
97 79 70 
-0.814453 -0.00285149 -3.10547 
164 147 133 
-0.797852 -0.00284576 -3.09961 
140 119 102 
-0.782227 -0.00284195 -3.0957 
114 94 74 
-0.76709 -0.00284004 -3.09375 
107 82 64 
-0.751465 -0.00283623 -3.08984 
112 92 70 
-0.734375 -0.00282669 -3.07813 
117 99 79 
-0.716797 -0.00281334 -3.06445 
108 89 72 
-0.697266 -0.00279427 -3.04492 
63 49 34 
-0.677734 -0.00277519 -3.02148 
53 38 26 
-0.65918 -0.00275612 -3 
58 44 36 
-0.641602 -0.00274277 -2.98633 
66 56 54 
-0.625488 -0.00273323 -2.97656 
98 101 100 
-0.611328 -0.00273323 -2.97656 
84 85 81 
-0.598633 -0.00273895 -2.98242 
81 82 78 
-0.587891 -0.00275421 -2.99805 
79 83 78 
-0.577637 -0.00277519 -3.02148 
80 83 82 
-0.567871 -0.00279617 -3.04688 
78 84 82 
-0.558105 -0.00281906 -3.07031 
76 82 80 
-0.547363 -0.00283813 -3.0918 
77 83 81 
-0.534668 -0.00284958 -3.10352 
80 86 84 
-0.52002 -0.00284958 -3.10352 
79 82 81 
-0.503906 -0.00284004 -3.09375 
82 82 82 
-0.48584 -0.00282097 -3.07227 
83 83 83 
-0.466797 -0.00279236 -3.04102 
83 83 83 
-0.44751 -0.00276375 -3.00977 
82 82 82 
-0.428955 -0.00273705 -2.98047 
81 85 80 
