ply
format ascii 1.0
comment pointcloud saved from Realsense Viewer
element vertex 2318
property float32 x
property float32 y
property float32 z
property uchar red
property uchar green
property uchar blue
end_header
254 86 0 
1.28516 -0.218384 -3.25195 
254 82 0 
1.30371 -0.21875 -3.25781 
254 78 0 
1.32227 -0.21936 -3.26563 
254 76 0 
1.3418 -0.219971 -3.27539 
254 70 0 
1.3623 -0.220825 -3.28906 
254 66 0 
1.38379 -0.221802 -3.30273 
254 61 0 
1.40723 -0.223022 -3.32227 
254 54 0 
1.43262 -0.224609 -3.34375 
254 46 0 
1.46094 -0.22644 -3.37305 
254 36 0 
1.49316 -0.229004 -3.41016 
254 23 0 
1.52832 -0.231934 -3.45313 
254 6 0 
1.56836 -0.235352 -3.50391 
242 0 0 
1.61133 -0.23938 -3.56445 
219 0 0 
1.6582 -0.243774 -3.63086 
190 0 0 
1.7041 -0.247925 -3.69141 
162 0 0 
1.74512 -0.251221 -3.74219 
138 0 0 
1.78613 -0.254639 -3.79297 
116 0 0 
1.82422 -0.257324 -3.83398 
97 0 0 
1.85449 -0.259033 -3.85938 
0 0 0 
1.8877 -0.26123 -3.89063 
74 0 0 
1.91113 -0.261963 -3.90234 
69 0 0 
1.93555 -0.262695 -3.91211 
65 0 0 
1.95508 -0.262695 -3.91406 
64 0 0 
1.97852 -0.263428 -3.92383 
60 0 0 
1.99805 -0.263672 -3.92578 
59 0 0 
2.01563 -0.263428 -3.92383 
60 0 0 
2.03906 -0.26416 -3.93359 
58 0 0 
2.05664 -0.26416 -3.93359 
58 0 0 
2.07227 -0.263672 -3.92773 
59 0 0 
2.08789 -0.263184 -3.92188 
61 0 0 
2.10156 -0.262695 -3.91406 
64 0 0 
2.11719 -0.262207 -3.90625 
68 0 0 
2.13086 -0.261719 -3.89844 
70 0 0 
2.14453 -0.26123 -3.89063 
74 0 0 
2.16016 -0.260742 -3.88281 
76 0 0 
2.17773 -0.260742 -3.88281 
76 0 0 
2.19336 -0.260254 -3.87695 
79 0 0 
2.20898 -0.26001 -3.87305 
81 0 0 
2.22656 -0.259766 -3.87109 
82 0 0 
2.24219 -0.259521 -3.86719 
69 0 0 
2.25586 -0.259033 -3.85938 
73 0 0 
2.26953 -0.258545 -3.85156 
78 0 0 
2.28125 -0.257813 -3.83984 
84 0 0 
2.29102 -0.256836 -3.82617 
91 0 0 
2.29883 -0.255859 -3.81055 
98 0 0 
2.30859 -0.254883 -3.79688 
105 0 0 
2.31836 -0.253906 -3.78125 
111 0 0 
2.32813 -0.253174 -3.76953 
118 0 0 
2.33789 -0.252197 -3.75586 
123 0 0 
2.3457 -0.251221 -3.74023 
128 0 0 
2.35352 -0.250244 -3.72656 
138 0 0 
2.36328 -0.249268 -3.71289 
138 0 0 
2.37305 -0.248413 -3.69922 
143 0 0 
2.38281 -0.247559 -3.6875 
149 0 0 
2.39258 -0.246948 -3.67773 
155 0 0 
2.4043 -0.246338 -3.66992 
161 0 0 
2.41797 -0.245972 -3.66211 
168 0 0 
2.43359 -0.245728 -3.6582 
175 0 0 
2.44922 -0.245605 -3.65625 
180 0 0 
2.46484 -0.245361 -3.6543 
183 0 0 
2.48047 -0.245239 -3.65234 
186 0 0 
2.49414 -0.244873 -3.64648 
189 0 0 
2.50586 -0.244385 -3.64063 
191 0 0 
2.51758 -0.243896 -3.63281 
195 0 0 
2.52734 -0.243042 -3.61914 
199 0 0 
2.5332 -0.242065 -3.60547 
205 0 0 
2.53906 -0.240967 -3.58789 
214 0 0 
2.54102 -0.239624 -3.56836 
223 0 0 
2.54297 -0.238281 -3.54688 
232 0 0 
2.54297 -0.236572 -3.52344 
242 0 0 
2.54297 -0.235107 -3.5 
250 0 0 
2.54492 -0.233765 -3.48242 
254 4 0 
2.54883 -0.232544 -3.46289 
254 10 0 
2.55664 -0.231689 -3.45117 
254 16 0 
2.56836 -0.231323 -3.44531 
254 21 0 
2.58008 -0.231079 -3.44141 
254 24 0 
2.5957 -0.230957 -3.43945 
254 26 0 
2.61133 -0.230957 -3.43945 
254 29 0 
2.62891 -0.231079 -3.44141 
254 31 0 
2.64648 -0.231079 -3.44141 
254 35 0 
2.66406 -0.231201 -3.44336 
254 37 0 
2.67969 -0.231201 -3.44336 
254 39 0 
2.69531 -0.231079 -3.44141 
254 41 0 
2.70898 -0.230957 -3.43945 
254 42 0 
2.72266 -0.230591 -3.43555 
254 45 0 
2.73242 -0.230103 -3.42578 
254 47 0 
2.74219 -0.229492 -3.41797 
254 51 0 
2.75 -0.228882 -3.4082 
254 55 0 
2.75781 -0.228149 -3.39844 
254 60 0 
2.76172 -0.227173 -3.38281 
254 65 0 
2.76367 -0.226074 -3.36719 
254 71 0 
2.76758 -0.225098 -3.35156 
254 78 0 
2.77148 -0.224121 -3.33789 
254 84 0 
2.77539 -0.223145 -3.32422 
254 91 0 
2.7832 -0.222534 -3.3125 
254 96 0 
2.78906 -0.22168 -3.30078 
254 100 0 
2.78516 -0.220093 -3.2793 
254 107 0 
2.78906 -0.219116 -3.26367 
254 106 0 
1.00098 -0.0749512 -1.11621 
0 34 254 
1.00391 -0.0747681 -1.11426 
0 32 254 
1.00586 -0.0745239 -1.10938 
0 31 254 
1.00879 -0.0744019 -1.10742 
0 29 254 
1.01074 -0.0740967 -1.10352 
0 27 254 
1.00977 -0.0736694 -1.09766 
0 25 254 
1.00781 -0.0731201 -1.08887 
0 22 254 
1.00684 -0.0727539 -1.08301 
0 19 254 
1.00684 -0.0723267 -1.07715 
0 15 254 
1.00586 -0.0718994 -1.07031 
0 13 254 
1.00684 -0.0715942 -1.06641 
0 11 254 
1.00586 -0.071228 -1.06055 
0 9 254 
1.00684 -0.0709229 -1.05664 
0 8 254 
1.00879 -0.0706787 -1.05176 
0 6 254 
1.01172 -0.0704956 -1.0498 
0 6 254 
1.0127 -0.0702515 -1.0459 
0 4 254 
1.01367 -0.0699463 -1.04199 
0 3 254 
1.01465 -0.0697021 -1.03809 
0 3 254 
1.01465 -0.069397 -1.03418 
0 2 254 
1.01758 -0.0692749 -1.03125 
0 2 254 
1.01855 -0.0689697 -1.02734 
0 2 254 
1.02344 -0.0689697 -1.02734 
0 2 254 
1.02637 -0.0688477 -1.02539 
0 2 254 
1.03125 -0.0688477 -1.02539 
0 2 254 
-2.12891 -0.275391 -3.83203 
97 0 0 
-2.0918 -0.272949 -3.79883 
112 0 0 
-2.05273 -0.270264 -3.76172 
129 0 0 
-2.01172 -0.267334 -3.71875 
148 0 0 
-1.96973 -0.263916 -3.67188 
170 0 0 
-1.9248 -0.26001 -3.61914 
195 0 0 
-1.87988 -0.256348 -3.56641 
218 0 0 
-1.83691 -0.252686 -3.51758 
235 0 0 
-1.79785 -0.249756 -3.47461 
249 0 0 
-1.7627 -0.24707 -3.4375 
254 6 0 
-1.73242 -0.244995 -3.4082 
254 16 0 
-1.7041 -0.243286 -3.38477 
254 24 0 
-1.68164 -0.24231 -3.37109 
254 28 0 
-1.66016 -0.241577 -3.36133 
254 33 0 
-1.6416 -0.241089 -3.35352 
254 37 0 
-1.62305 -0.240845 -3.34961 
254 41 0 
-1.60547 -0.240479 -3.3457 
254 47 0 
-1.58594 -0.23999 -3.33789 
254 52 0 
-1.56543 -0.239258 -3.32813 
254 60 0 
-1.54297 -0.238159 -3.3125 
254 70 0 
-1.51758 -0.236694 -3.29297 
254 81 0 
-1.49121 -0.234863 -3.26758 
254 96 0 
-1.46094 -0.232544 -3.23438 
254 111 0 
-1.42676 -0.229614 -3.19336 
254 130 0 
-1.38867 -0.225952 -3.14258 
254 152 0 
-1.34863 -0.221802 -3.08594 
254 176 0 
-1.30762 -0.217285 -3.02344 
254 200 0 
-1.2666 -0.212891 -2.96094 
254 223 0 
-1.22754 -0.208618 -2.90234 
254 244 0 
-1.19238 -0.204956 -2.85156 
247 254 7 
-1.16113 -0.201782 -2.80664 
234 254 20 
-1.13379 -0.199341 -2.77344 
223 254 30 
-1.11035 -0.19751 -2.74805 
215 254 39 
-1.09082 -0.196289 -2.73242 
211 254 43 
-1.07422 -0.195557 -2.7207 
207 254 47 
-1.06055 -0.195435 -2.71875 
206 254 48 
-1.04785 -0.195557 -2.7207 
206 254 48 
-1.03711 -0.195923 -2.72461 
207 254 47 
-1.02637 -0.196289 -2.73242 
209 254 45 
-1.01563 -0.196777 -2.73828 
213 254 41 
-1.00488 -0.197266 -2.74414 
213 254 41 
-0.993652 -0.19751 -2.74805 
215 254 39 
-0.981934 -0.197876 -2.75195 
216 254 38 
-0.970703 -0.19812 -2.75586 
218 254 36 
-0.958984 -0.198364 -2.75977 
219 254 35 
-0.947754 -0.198853 -2.76563 
221 254 33 
-0.938477 -0.199585 -2.77734 
222 254 32 
-0.930176 -0.200684 -2.79102 
226 254 28 
-0.92334 -0.202148 -2.8125 
230 254 24 
-0.918457 -0.203857 -2.83594 
236 254 18 
-0.914551 -0.206055 -2.86719 
243 254 11 
-0.910645 -0.208374 -2.89844 
251 254 3 
-0.906738 -0.210571 -2.92969 
254 247 0 
-0.900391 -0.21228 -2.95313 
254 238 0 
-0.892578 -0.213745 -2.97461 
254 230 0 
-0.880371 -0.214233 -2.98047 
254 226 0 
-0.865723 -0.214111 -2.97852 
254 226 0 
-0.845703 -0.212646 -2.95703 
254 233 0 
-0.822754 -0.210327 -2.92773 
254 241 0 
-0.797852 -0.207397 -2.88477 
254 251 0 
-0.771484 -0.204224 -2.83984 
245 254 9 
-0.746094 -0.200928 -2.79492 
234 254 20 
-0.722168 -0.197998 -2.75391 
221 254 32 
-0.69873 -0.195068 -2.71289 
210 254 44 
-0.675781 -0.192261 -2.67383 
199 254 55 
-0.652344 -0.189087 -2.63086 
188 254 66 
-0.629395 -0.186035 -2.58789 
175 254 79 
-0.606934 -0.182861 -2.54492 
160 254 94 
-0.585938 -0.180054 -2.50586 
146 254 108 
-0.566895 -0.177856 -2.47461 
133 254 121 
-0.550293 -0.17627 -2.45117 
124 254 130 
-0.536133 -0.175537 -2.44141 
118 254 136 
-0.524414 -0.175415 -2.43945 
118 254 136 
-0.514648 -0.175903 -2.44727 
122 254 132 
-0.505371 -0.17688 -2.46094 
128 254 126 
-0.498047 -0.178345 -2.48047 
135 254 119 
-0.490234 -0.17981 -2.50195 
145 254 109 
-0.474609 -0.178345 -2.48047 
143 254 111 
-0.473389 -0.182495 -2.53906 
157 254 96 
-0.461914 -0.182617 -2.54102 
159 254 95 
-0.436035 -0.177002 -2.46289 
144 254 110 
-0.420898 -0.175537 -2.44141 
113 254 141 
-0.410156 -0.175903 -2.44727 
113 254 141 
-0.4021 -0.17749 -2.46875 
0 0 0 
-0.388184 -0.176392 -2.45313 
0 0 0 
-0.377686 -0.177002 -2.46289 
146 254 108 
-0.37085 -0.179321 -2.49414 
140 254 114 
-0.35791 -0.178711 -2.48633 
136 254 118 
-0.341553 -0.176392 -2.45313 
123 254 131 
-0.327637 -0.175049 -2.43555 
115 254 139 
-0.315918 -0.175049 -2.43555 
115 254 139 
-0.302246 -0.173706 -2.41602 
120 254 134 
-0.306641 -0.183228 -2.54883 
141 254 113 
-0.29126 -0.181152 -2.51953 
141 254 113 
-0.277588 -0.180054 -2.50586 
135 254 119 
-0.26416 -0.179077 -2.49023 
127 254 127 
-0.246338 -0.174683 -2.42969 
105 254 149 
-0.234985 -0.174805 -2.43164 
103 254 151 
-0.223877 -0.175049 -2.43555 
102 254 152 
-0.212891 -0.175537 -2.44141 
101 254 153 
-0.201294 -0.175537 -2.44141 
102 254 152 
-0.189697 -0.175537 -2.44141 
103 254 151 
-0.178223 -0.175537 -2.44141 
105 254 149 
-0.166748 -0.175659 -2.44336 
108 254 146 
-0.155151 -0.175537 -2.44141 
110 254 144 
-0.143188 -0.175049 -2.43555 
111 254 143 
-0.131226 -0.174438 -2.42773 
112 254 142 
-0.119324 -0.173828 -2.41992 
114 254 140 
-0.107544 -0.17334 -2.41016 
112 254 142 
-0.0958862 -0.172852 -2.4043 
110 254 144 
-0.0842896 -0.172363 -2.39844 
108 254 146 
-0.0728149 -0.172119 -2.39453 
105 254 149 
-0.0613708 -0.171753 -2.39063 
104 254 150 
-0.0500793 -0.171753 -2.39063 
103 254 151 
-0.0388489 -0.172241 -2.39648 
104 254 150 
-0.0275421 -0.172363 -2.39844 
103 254 151 
-0.0162201 -0.172729 -2.40234 
103 254 151 
-0.00486374 -0.172974 -2.40625 
103 254 151 
0.00653839 -0.173462 -2.41211 
104 254 150 
0.0179901 -0.173706 -2.41602 
106 254 148 
0.0294952 -0.174194 -2.42383 
108 254 146 
0.0410461 -0.174683 -2.42969 
111 254 143 
0.0527039 -0.175049 -2.43555 
115 254 139 
0.0643921 -0.175659 -2.44336 
119 254 135 
0.0762939 -0.176392 -2.45313 
125 254 129 
0.0883789 -0.177246 -2.4668 
131 254 123 
0.100708 -0.178467 -2.48242 
138 254 116 
0.11322 -0.179688 -2.5 
145 254 108 
0.125854 -0.180786 -2.51563 
151 254 103 
0.13855 -0.181885 -2.5293 
157 254 97 
0.151123 -0.182617 -2.54102 
159 254 95 
0.163452 -0.183105 -2.54688 
161 254 93 
0.175659 -0.183228 -2.54883 
161 254 93 
0.187256 -0.182739 -2.54297 
159 254 95 
0.19873 -0.182129 -2.5332 
155 254 99 
0.209839 -0.181396 -2.52344 
151 254 103 
0.221069 -0.180786 -2.51563 
149 254 105 
0.232422 -0.18042 -2.50977 
147 254 107 
0.244507 -0.180542 -2.51172 
147 254 107 
0.257324 -0.181274 -2.52148 
151 254 103 
0.271729 -0.182861 -2.54492 
159 254 95 
0.287842 -0.185547 -2.58203 
170 254 84 
0.305664 -0.188965 -2.62891 
185 254 69 
0.325195 -0.193237 -2.6875 
199 254 55 
0.345947 -0.197876 -2.75195 
218 254 36 
0.367676 -0.202515 -2.81836 
254 250 0 
0.388916 -0.206787 -2.87695 
254 250 0 
0.40918 -0.210205 -2.92383 
254 232 0 
0.427734 -0.212646 -2.95703 
254 219 0 
0.443848 -0.213623 -2.97266 
254 214 0 
0.458008 -0.213623 -2.97266 
254 214 0 
0.470459 -0.212891 -2.96094 
254 218 0 
0.481689 -0.21167 -2.94531 
254 226 0 
0.492188 -0.210205 -2.92383 
254 235 0 
0.50293 -0.209106 -2.9082 
254 242 0 
0.51416 -0.207886 -2.89258 
254 248 0 
0.525879 -0.207153 -2.88086 
254 254 0 
0.538086 -0.206543 -2.87305 
250 254 4 
0.55127 -0.206421 -2.87109 
248 254 6 
0.564453 -0.206421 -2.87109 
247 254 7 
0.579102 -0.206665 -2.875 
247 254 7 
0.59375 -0.207153 -2.88086 
248 254 6 
0.609375 -0.207764 -2.89063 
250 254 4 
0.625 -0.208496 -2.90039 
254 254 0 
0.641113 -0.209229 -2.91016 
254 251 0 
0.657227 -0.209961 -2.91992 
254 248 0 
0.672852 -0.210571 -2.92969 
254 245 0 
0.688965 -0.211182 -2.9375 
254 243 0 
0.703613 -0.211426 -2.94141 
254 241 0 
0.71875 -0.21167 -2.94531 
254 240 0 
0.733398 -0.212036 -2.94922 
254 238 0 
0.748535 -0.21228 -2.95313 
254 236 0 
0.763672 -0.212646 -2.95703 
254 234 0 
0.779297 -0.213013 -2.96289 
254 230 0 
0.794922 -0.213501 -2.9707 
254 226 0 
0.811035 -0.214111 -2.97852 
254 223 0 
0.828125 -0.214844 -2.98828 
254 219 0 
0.844727 -0.215454 -2.99609 
254 214 0 
0.861816 -0.216187 -3.00781 
254 211 0 
0.878906 -0.216919 -3.01758 
254 206 0 
0.896973 -0.217773 -3.0293 
254 201 0 
0.913574 -0.218384 -3.03711 
254 196 0 
0.930664 -0.218994 -3.04688 
254 190 0 
0.946777 -0.21936 -3.05273 
254 188 0 
0.963379 -0.219849 -3.05859 
254 183 0 
0.979004 -0.220093 -3.0625 
254 181 0 
0.995605 -0.220581 -3.06836 
254 179 0 
1.01074 -0.220825 -3.07227 
254 176 0 
1.02832 -0.221436 -3.08008 
254 173 0 
1.04688 -0.222168 -3.0918 
254 170 0 
1.06543 -0.223145 -3.10352 
254 166 0 
1.08594 -0.224243 -3.11914 
254 159 0 
1.10742 -0.225586 -3.13867 
254 151 0 
1.12891 -0.227051 -3.1582 
254 142 0 
1.15137 -0.228516 -3.17969 
254 132 0 
1.17383 -0.229858 -3.19727 
254 122 0 
1.19434 -0.231079 -3.21484 
254 111 0 
1.21582 -0.232056 -3.22852 
254 101 0 
1.23535 -0.233032 -3.24219 
254 87 0 
1.25391 -0.233643 -3.25 
254 87 0 
1.27148 -0.234009 -3.25586 
254 82 0 
1.28906 -0.234497 -3.26172 
254 78 0 
1.30762 -0.234863 -3.26758 
254 76 0 
1.32617 -0.235474 -3.27539 
254 72 0 
1.34473 -0.236084 -3.28516 
254 68 0 
1.36621 -0.236938 -3.29688 
254 63 0 
1.38867 -0.238159 -3.3125 
254 58 0 
1.41211 -0.239502 -3.33203 
254 52 0 
1.43848 -0.241333 -3.35742 
254 42 0 
1.46777 -0.24353 -3.38672 
254 32 0 
1.49902 -0.245972 -3.42188 
254 19 0 
1.53516 -0.249268 -3.4668 
254 1 0 
1.5752 -0.25293 -3.52148 
237 0 0 
1.61914 -0.257324 -3.58008 
213 0 0 
1.66504 -0.261963 -3.64453 
184 0 0 
1.70898 -0.266113 -3.70117 
158 0 0 
1.74805 -0.269531 -3.75 
135 0 0 
1.98242 -0.282471 -3.93164 
58 0 0 
1.99902 -0.282227 -3.92773 
59 0 0 
2.01563 -0.282227 -3.92578 
59 0 0 
2.0332 -0.281738 -3.92188 
61 0 0 
2.05664 -0.282715 -3.93359 
58 0 0 
2.07422 -0.282471 -3.92969 
58 0 0 
2.08984 -0.281982 -3.92383 
60 0 0 
2.10352 -0.281494 -3.91602 
63 0 0 
2.11719 -0.280762 -3.9082 
67 0 0 
2.13086 -0.280273 -3.89844 
70 0 0 
2.14453 -0.279541 -3.88867 
75 0 0 
2.1543 -0.27832 -3.87305 
81 0 0 
2.17188 -0.27832 -3.87305 
81 0 0 
2.1875 -0.278076 -3.86914 
82 0 0 
2.20703 -0.278076 -3.87109 
82 0 0 
2.22266 -0.277832 -3.86719 
83 0 0 
2.24414 -0.278076 -3.87109 
69 0 0 
2.25781 -0.277832 -3.86523 
74 0 0 
2.27148 -0.276855 -3.85352 
79 0 0 
2.28125 -0.276123 -3.8418 
86 0 0 
2.29102 -0.275146 -3.82813 
93 0 0 
2.30273 -0.27417 -3.81445 
99 0 0 
2.31055 -0.273193 -3.80078 
106 0 0 
2.31836 -0.271973 -3.7832 
112 0 0 
2.33008 -0.270996 -3.77148 
118 0 0 
2.33984 -0.270264 -3.75977 
122 0 0 
2.34766 -0.269043 -3.74414 
128 0 0 
2.35742 -0.268066 -3.73047 
138 0 0 
2.36523 -0.26709 -3.7168 
138 0 0 
2.37695 -0.266357 -3.70508 
143 0 0 
2.38672 -0.265381 -3.69336 
148 0 0 
2.39648 -0.264648 -3.68359 
155 0 0 
2.4082 -0.263916 -3.67383 
161 0 0 
2.41992 -0.263428 -3.66406 
169 0 0 
2.43359 -0.263184 -3.66016 
176 0 0 
2.44922 -0.262695 -3.65625 
180 0 0 
2.46484 -0.262695 -3.6543 
184 0 0 
2.48242 -0.262695 -3.6543 
186 0 0 
2.49609 -0.262451 -3.65039 
188 0 0 
2.51172 -0.261963 -3.64648 
189 0 0 
2.52344 -0.261719 -3.64063 
192 0 0 
2.5332 -0.260986 -3.63086 
196 0 0 
2.54297 -0.26001 -3.61719 
202 0 0 
2.54688 -0.258545 -3.59961 
211 0 0 
2.55078 -0.257324 -3.58008 
220 0 0 
2.54883 -0.255615 -3.55664 
231 0 0 
2.55078 -0.253906 -3.5332 
240 0 0 
2.54883 -0.252197 -3.50781 
248 0 0 
2.55078 -0.250732 -3.48828 
254 1 0 
2.55469 -0.249512 -3.4707 
254 8 0 
2.5625 -0.248657 -3.45898 
254 13 0 
2.57422 -0.248169 -3.45313 
254 18 0 
2.58789 -0.247925 -3.44922 
254 21 0 
2.60352 -0.247925 -3.44922 
254 22 0 
2.61914 -0.247925 -3.44922 
254 24 0 
2.63672 -0.248047 -3.45117 
254 26 0 
2.65625 -0.248169 -3.45313 
254 28 0 
2.67188 -0.248169 -3.45313 
254 30 0 
2.6875 -0.248047 -3.45117 
254 33 0 
2.70117 -0.247925 -3.44922 
254 36 0 
2.71289 -0.247437 -3.44336 
254 39 0 
2.72461 -0.24707 -3.4375 
254 41 0 
2.73633 -0.246582 -3.42969 
254 44 0 
2.74414 -0.24585 -3.41992 
254 48 0 
2.75391 -0.245239 -3.41211 
254 52 0 
2.75977 -0.244385 -3.40039 
254 57 0 
2.76563 -0.24353 -3.38672 
254 62 0 
2.76953 -0.242432 -3.37305 
254 69 0 
2.77539 -0.241577 -3.36133 
254 77 0 
2.7793 -0.240479 -3.3457 
254 83 0 
2.78516 -0.239624 -3.33398 
254 91 0 
2.79102 -0.238892 -3.32422 
254 96 0 
2.79883 -0.238159 -3.3125 
254 101 0 
2.76563 -0.234009 -3.25586 
254 118 0 
1.00098 -0.0802002 -1.11621 
0 34 254 
1.00391 -0.0800781 -1.11426 
0 33 254 
1.00586 -0.0797729 -1.10938 
0 31 254 
1.00684 -0.0794678 -1.10547 
0 29 254 
1.00879 -0.0791626 -1.10156 
0 27 254 
1.00781 -0.0787354 -1.0957 
0 25 254 
1.00781 -0.0783081 -1.08887 
0 21 254 
1.00684 -0.0778809 -1.08301 
0 18 254 
1.00684 -0.0773926 -1.07715 
0 15 254 
1.00586 -0.0769653 -1.07031 
0 13 254 
1.00488 -0.0765381 -1.06445 
0 11 254 
1.00586 -0.0762329 -1.06055 
0 9 254 
1.00684 -0.0759277 -1.05664 
0 8 254 
1.01074 -0.0758057 -1.05469 
0 6 254 
1.01172 -0.0755005 -1.0498 
0 6 254 
1.0127 -0.0751953 -1.0459 
0 4 254 
1.01367 -0.0748901 -1.04199 
0 3 254 
1.01465 -0.074585 -1.03809 
0 3 254 
1.01465 -0.0742798 -1.03418 
0 2 254 
1.01758 -0.0741577 -1.03125 
0 2 254 
1.02051 -0.0740356 -1.0293 
0 2 254 
1.02344 -0.0738525 -1.02734 
0 2 254 
1.02832 -0.0738525 -1.02734 
0 2 254 
1.03125 -0.0737305 -1.02539 
0 2 254 
-2.12891 -0.293701 -3.83398 
96 0 0 
-2.0957 -0.291504 -3.80664 
111 0 0 
-2.05859 -0.288818 -3.77148 
128 0 0 
-2.01758 -0.285645 -3.72852 
145 0 0 
-1.97559 -0.281982 -3.68164 
167 0 0 
-1.93164 -0.27832 -3.63281 
192 0 0 
-1.88672 -0.27417 -3.57813 
216 0 0 
-1.84277 -0.270264 -3.52734 
234 0 0 
-1.80273 -0.266602 -3.48242 
248 0 0 
-1.76563 -0.263672 -3.44336 
254 6 0 
-1.73438 -0.26123 -3.41211 
254 16 0 
-1.70508 -0.259521 -3.38672 
254 25 0 
-1.68164 -0.258301 -3.37109 
254 31 0 
-1.65918 -0.257324 -3.35938 
254 36 0 
-1.63965 -0.256592 -3.34961 
254 41 0 
-1.61914 -0.256104 -3.3418 
254 47 0 
-1.59961 -0.255371 -3.33398 
254 53 0 
-1.57813 -0.254395 -3.32227 
254 61 0 
-1.55566 -0.253418 -3.30664 
254 71 0 
-1.53027 -0.251709 -3.28711 
254 83 0 
-1.50293 -0.249878 -3.26172 
254 98 0 
-1.47363 -0.247559 -3.23047 
254 114 0 
-1.44043 -0.244385 -3.18945 
254 133 0 
-1.4043 -0.240723 -3.14258 
254 154 0 
-1.3623 -0.236206 -3.08398 
254 180 0 
-1.31836 -0.230957 -3.01563 
254 205 0 
-1.27344 -0.225708 -2.94531 
254 230 0 
-1.23145 -0.220581 -2.87891 
254 253 0 
-1.19336 -0.216064 -2.82031 
237 254 17 
-1.1582 -0.212158 -2.76758 
221 254 33 
-1.12891 -0.209106 -2.72852 
210 254 44 
-1.10449 -0.206909 -2.70117 
202 254 52 
-1.08398 -0.205444 -2.68164 
196 254 57 
-1.06641 -0.20459 -2.66992 
193 254 60 
-1.05273 -0.204346 -2.66797 
192 254 61 
-1.04199 -0.204712 -2.67188 
193 254 61 
-1.03223 -0.205322 -2.67969 
195 254 59 
-1.02344 -0.206177 -2.68945 
197 254 57 
-1.01563 -0.207031 -2.70313 
201 254 53 
-1.00684 -0.207886 -2.71289 
207 254 47 
-0.99707 -0.208496 -2.7207 
207 254 47 
-0.986816 -0.209106 -2.72852 
210 254 44 
-0.976074 -0.209595 -2.73633 
213 254 41 
-0.963867 -0.209717 -2.73828 
214 254 40 
-0.952637 -0.210083 -2.74219 
215 254 39 
-0.940918 -0.210327 -2.74609 
215 254 39 
-0.930176 -0.210815 -2.75195 
216 254 38 
-0.920898 -0.211792 -2.76367 
218 254 36 
-0.913574 -0.213013 -2.78125 
221 254 32 
-0.907715 -0.214844 -2.80273 
228 254 26 
-0.902832 -0.216797 -2.83008 
235 254 19 
-0.898926 -0.219238 -2.86133 
243 254 11 
-0.894043 -0.221191 -2.88867 
250 254 4 
-0.887207 -0.223022 -2.91016 
254 250 0 
-0.877441 -0.224121 -2.92383 
254 244 0 
-0.865234 -0.224365 -2.92969 
254 241 0 
-0.849121 -0.223877 -2.92188 
254 242 0 
-0.82959 -0.22229 -2.90234 
254 247 0 
-0.807129 -0.219971 -2.87109 
252 254 2 
-0.782715 -0.217041 -2.83203 
243 254 11 
-0.758301 -0.213867 -2.79102 
233 254 21 
-0.734863 -0.210815 -2.75195 
221 254 33 
-0.711914 -0.208008 -2.71484 
211 254 43 
-0.689941 -0.205322 -2.67969 
201 254 53 
-0.667969 -0.202515 -2.64258 
192 254 62 
-0.646973 -0.199829 -2.60742 
181 254 73 
-0.625 -0.196777 -2.56836 
169 254 85 
-0.603516 -0.193848 -2.5293 
154 254 100 
-0.583496 -0.191162 -2.49414 
142 254 112 
-0.564941 -0.188965 -2.4668 
129 254 125 
-0.54834 -0.187256 -2.44336 
120 254 134 
-0.53418 -0.186401 -2.43359 
115 254 139 
-0.521973 -0.186157 -2.42969 
113 254 141 
-0.510742 -0.186279 -2.43164 
115 254 139 
-0.500977 -0.18689 -2.43945 
117 254 137 
-0.491699 -0.187744 -2.44922 
122 254 132 
-0.482178 -0.188477 -2.46094 
126 254 128 
-0.468506 -0.187744 -2.44922 
125 254 129 
-0.457275 -0.187866 -2.45117 
126 254 128 
-0.446045 -0.187988 -2.45313 
128 254 126 
-0.43042 -0.186279 -2.43164 
122 254 132 
-0.418213 -0.185913 -2.42773 
106 254 148 
-0.407227 -0.186157 -2.42969 
106 254 148 
-0.396729 -0.186646 -2.43555 
109 254 145 
-0.386719 -0.187378 -2.44531 
114 254 140 
-0.375244 -0.187378 -2.44531 
119 254 135 
-0.365479 -0.188354 -2.45898 
125 254 129 
-0.353027 -0.187866 -2.45117 
141 254 113 
-0.339355 -0.186768 -2.4375 
136 254 118 
-0.327148 -0.186401 -2.43359 
134 254 120 
-0.323975 -0.191284 -2.49805 
147 254 107 
-0.3125 -0.191528 -2.5 
142 254 112 
-0.2854 -0.181763 -2.37109 
106 254 148 
-0.275635 -0.182861 -2.38672 
106 254 148 
-0.265625 -0.183594 -2.39648 
106 254 148 
-0.254883 -0.184082 -2.40234 
103 254 151 
-0.244995 -0.185181 -2.41602 
102 254 152 
-0.234009 -0.185547 -2.42188 
100 254 154 
-0.222778 -0.185669 -2.42383 
98 254 156 
-0.211304 -0.185669 -2.42383 
96 254 158 
-0.199585 -0.185547 -2.42188 
95 254 159 
-0.187866 -0.185181 -2.41602 
94 254 160 
-0.17627 -0.185059 -2.41406 
94 254 160 
-0.164551 -0.184692 -2.41016 
95 254 159 
-0.152832 -0.184326 -2.40625 
94 254 160 
-0.140991 -0.183716 -2.39844 
92 254 161 
-0.12915 -0.182983 -2.38867 
90 254 164 
-0.11731 -0.182129 -2.37695 
90 254 164 
-0.105713 -0.181519 -2.36914 
86 254 168 
-0.0941772 -0.180908 -2.36133 
83 254 171 
-0.0827026 -0.180298 -2.35352 
80 254 174 
-0.0714111 -0.179932 -2.34961 
78 254 176 
-0.0602112 -0.179688 -2.3457 
76 254 178 
-0.0491028 -0.179688 -2.3457 
76 254 178 
-0.0380859 -0.179932 -2.34961 
76 254 178 
-0.0270233 -0.180298 -2.35352 
76 254 178 
-0.0159149 -0.180664 -2.35742 
77 254 177 
-0.00477219 -0.180908 -2.36133 
78 254 176 
0.00642014 -0.181519 -2.36914 
80 254 174 
0.0176697 -0.182007 -2.375 
83 254 171 
0.0290222 -0.182617 -2.38477 
87 254 167 
0.0404663 -0.183472 -2.39453 
92 254 161 
0.0519714 -0.184082 -2.40234 
98 254 156 
0.0636597 -0.185059 -2.41406 
105 254 149 
0.0755005 -0.185913 -2.42773 
112 254 142 
0.0875244 -0.187256 -2.44336 
120 254 134 
0.0997925 -0.188477 -2.46094 
128 254 126 
0.112244 -0.189941 -2.47852 
135 254 119 
0.124817 -0.191162 -2.49414 
143 254 111 
0.137451 -0.192383 -2.51172 
149 254 105 
0.150024 -0.193237 -2.52148 
152 254 102 
0.162354 -0.193726 -2.52734 
153 254 101 
0.174316 -0.193726 -2.52734 
153 254 101 
0.185791 -0.193237 -2.52148 
151 254 103 
0.196899 -0.192383 -2.51172 
148 254 106 
0.208008 -0.19165 -2.50195 
145 254 109 
0.218872 -0.190796 -2.49023 
141 254 113 
0.230103 -0.19043 -2.48438 
138 254 116 
0.242065 -0.190552 -2.48633 
138 254 116 
0.254639 -0.191162 -2.49414 
142 254 112 
0.268555 -0.192749 -2.51563 
148 254 106 
0.28418 -0.195313 -2.54883 
159 254 95 
0.301514 -0.19873 -2.59375 
174 254 80 
0.320801 -0.203125 -2.65039 
190 254 64 
0.341553 -0.20813 -2.7168 
208 254 46 
0.363525 -0.213501 -2.78711 
250 254 4 
0.385986 -0.21875 -2.85547 
250 254 4 
0.406982 -0.222778 -2.9082 
254 238 0 
0.42627 -0.22583 -2.94727 
254 223 0 
0.443115 -0.227173 -2.9668 
254 215 0 
0.457764 -0.227539 -2.9707 
254 214 0 
0.470459 -0.226929 -2.96094 
254 217 0 
0.481689 -0.225708 -2.94531 
254 225 0 
0.492676 -0.224243 -2.92773 
254 234 0 
0.50293 -0.222778 -2.9082 
254 242 0 
0.51416 -0.221558 -2.89258 
254 248 0 
0.525391 -0.220581 -2.87891 
254 254 0 
0.537598 -0.219971 -2.87109 
249 254 5 
0.549805 -0.219482 -2.86523 
247 254 7 
0.562988 -0.21936 -2.86328 
244 254 10 
0.577148 -0.219482 -2.86523 
244 254 10 
0.591309 -0.219849 -2.86914 
245 254 9 
0.606445 -0.220337 -2.875 
247 254 7 
0.62207 -0.221069 -2.88477 
250 254 4 
0.637695 -0.22168 -2.89453 
252 254 2 
0.653809 -0.222534 -2.9043 
254 252 0 
0.669434 -0.223145 -2.91211 
254 250 0 
0.68457 -0.223633 -2.91797 
254 248 0 
0.699707 -0.224121 -2.92383 
254 246 0 
0.714355 -0.224365 -2.92969 
254 244 0 
0.72998 -0.224854 -2.93555 
254 243 0 
0.745605 -0.225342 -2.94141 
254 240 0 
0.760742 -0.22583 -2.94727 
254 238 0 
0.776855 -0.22644 -2.95508 
254 235 0 
0.793457 -0.227051 -2.96289 
254 231 0 
0.810059 -0.227905 -2.97461 
254 226 0 
0.827148 -0.228638 -2.98438 
254 221 0 
0.844727 -0.229614 -2.99609 
254 216 0 
0.862305 -0.230591 -3.00977 
254 212 0 
0.879883 -0.231445 -3.02148 
254 206 0 
0.897949 -0.232422 -3.0332 
254 201 0 
0.915527 -0.233154 -3.04492 
254 195 0 
0.932617 -0.233887 -3.05273 
254 189 0 
0.94873 -0.234375 -3.05859 
254 186 0 
0.965332 -0.234741 -3.06445 
254 182 0 
0.980957 -0.235107 -3.06836 
254 180 0 
0.99707 -0.235474 -3.07227 
254 177 0 
1.0127 -0.235718 -3.07617 
254 174 0 
1.03027 -0.236328 -3.08594 
254 172 0 
1.04688 -0.236938 -3.09375 
254 168 0 
1.06641 -0.238037 -3.10742 
254 163 0 
1.08691 -0.239258 -3.12305 
254 156 0 
1.1084 -0.240723 -3.14258 
254 149 0 
1.13086 -0.24231 -3.16406 
254 140 0 
1.15332 -0.243896 -3.18359 
254 128 0 
1.17676 -0.245605 -3.20703 
254 117 0 
1.19824 -0.24707 -3.22461 
254 106 0 
1.21973 -0.248291 -3.24219 
254 96 0 
1.24121 -0.24939 -3.25586 
254 80 0 
1.26074 -0.250244 -3.26563 
254 80 0 
1.2793 -0.250732 -3.27344 
254 76 0 
1.29688 -0.251221 -3.28125 
254 71 0 
1.31445 -0.251709 -3.28711 
254 69 0 
1.33398 -0.252441 -3.29492 
254 65 0 
1.35156 -0.25293 -3.30078 
254 62 0 
1.37305 -0.253906 -3.3125 
254 58 0 
1.39551 -0.255127 -3.33008 
254 53 0 
1.41992 -0.256592 -3.34961 
254 46 0 
1.44629 -0.258545 -3.375 
254 38 0 
1.47656 -0.260986 -3.4082 
254 26 0 
1.50977 -0.263916 -3.44727 
254 10 0 
1.5459 -0.267578 -3.49219 
247 0 0 
1.58594 -0.271484 -3.54492 
229 0 0 
1.62891 -0.275879 -3.60352 
203 0 0 
1.67383 -0.280762 -3.66406 
175 0 0 
1.7168 -0.284912 -3.71875 
151 0 0 
1.75391 -0.288086 -3.76172 
129 0 0 
1.98633 -0.301758 -3.94141 
0 0 0 
2.00195 -0.301514 -3.93555 
0 0 0 
2.02148 -0.301514 -3.93555 
0 0 0 
2.03906 -0.301514 -3.93555 
0 0 0 
2.05664 -0.30127 -3.93164 
58 0 0 
2.07031 -0.300293 -3.92188 
61 0 0 
2.08789 -0.300293 -3.92188 
61 0 0 
2.10156 -0.299805 -3.91406 
64 0 0 
2.11719 -0.299072 -3.90625 
68 0 0 
2.125 -0.297852 -3.88867 
75 0 0 
2.12305 -0.295166 -3.85156 
89 0 0 
2.13672 -0.294189 -3.8418 
94 0 0 
2.15039 -0.293701 -3.83594 
96 0 0 
2.17578 -0.294678 -3.8457 
92 0 0 
2.18164 -0.292969 -3.82617 
101 0 0 
2.20117 -0.293213 -3.82813 
100 0 0 
2.24219 -0.296387 -3.86914 
72 0 0 
2.25586 -0.295654 -3.85938 
76 0 0 
2.27148 -0.29541 -3.85547 
81 0 0 
2.28516 -0.294678 -3.8457 
87 0 0 
2.29297 -0.293457 -3.83203 
94 0 0 
2.30469 -0.29248 -3.81836 
100 0 0 
2.3125 -0.29126 -3.80273 
107 0 0 
2.32227 -0.290283 -3.79102 
112 0 0 
2.33398 -0.289551 -3.7793 
116 0 0 
2.3457 -0.288574 -3.76758 
120 0 0 
2.35547 -0.287598 -3.75586 
125 0 0 
2.36523 -0.286621 -3.74219 
135 0 0 
2.37305 -0.285645 -3.72852 
135 0 0 
2.38477 -0.284912 -3.71875 
139 0 0 
2.39258 -0.283691 -3.70313 
146 0 0 
2.40234 -0.282715 -3.69141 
154 0 0 
2.41211 -0.281738 -3.67969 
161 0 0 
2.42383 -0.28125 -3.67188 
169 0 0 
2.43555 -0.280518 -3.66211 
176 0 0 
2.44922 -0.280273 -3.6582 
181 0 0 
2.4668 -0.280029 -3.65625 
184 0 0 
2.48242 -0.280029 -3.6543 
186 0 0 
2.49805 -0.279785 -3.65234 
187 0 0 
2.51367 -0.279541 -3.65039 
188 0 0 
2.52734 -0.279297 -3.64648 
190 0 0 
2.53906 -0.278564 -3.63867 
193 0 0 
2.54883 -0.277832 -3.625 
199 0 0 
2.55273 -0.276367 -3.60938 
208 0 0 
2.55664 -0.274902 -3.58789 
218 0 0 
2.55664 -0.273193 -3.56641 
228 0 0 
2.55664 -0.27124 -3.54102 
237 0 0 
2.55664 -0.269531 -3.51953 
246 0 0 
2.55664 -0.267822 -3.49609 
252 0 0 
2.56055 -0.266602 -3.48047 
254 5 0 
2.57031 -0.265869 -3.46875 
254 9 0 
2.58008 -0.265137 -3.46094 
254 12 0 
2.5957 -0.264893 -3.45898 
254 15 0 
2.61133 -0.264893 -3.45898 
254 16 0 
2.62891 -0.265137 -3.46094 
254 19 0 
2.64648 -0.265381 -3.46289 
254 21 0 
2.66406 -0.265381 -3.46289 
254 22 0 
2.67969 -0.265381 -3.46289 
254 24 0 
2.69336 -0.264893 -3.45898 
254 27 0 
2.70508 -0.264404 -3.45313 
254 30 0 
2.7168 -0.263916 -3.44727 
254 35 0 
2.72656 -0.263428 -3.43945 
254 39 0 
2.73438 -0.262695 -3.42773 
254 42 0 
2.74414 -0.261963 -3.41992 
254 46 0 
2.75195 -0.26123 -3.41016 
254 51 0 
2.75977 -0.260498 -3.40039 
254 55 0 
2.76563 -0.259521 -3.38672 
254 62 0 
2.77148 -0.258545 -3.375 
254 69 0 
2.77734 -0.257568 -3.36328 
254 77 0 
2.78125 -0.256348 -3.34766 
254 85 0 
2.78906 -0.255615 -3.33789 
254 93 0 
2.79297 -0.254639 -3.32617 
254 100 0 
2.80273 -0.25415 -3.31836 
254 106 0 
2.82422 -0.254639 -3.32422 
254 106 0 
0.999512 -0.0858154 -1.12012 
0 37 254 
0.999023 -0.0853271 -1.11426 
0 34 254 
1.00195 -0.0852051 -1.1123 
0 33 254 
1.00586 -0.085022 -1.10938 
0 31 254 
1.00684 -0.0847168 -1.10547 
0 29 254 
1.00684 -0.0842285 -1.09961 
0 27 254 
1.00586 -0.0837402 -1.09375 
0 24 254 
1.00586 -0.083313 -1.08691 
0 21 254 
1.00488 -0.0828247 -1.08105 
0 18 254 
1.00488 -0.0823364 -1.0752 
0 15 254 
1.00586 -0.0820313 -1.07031 
0 13 254 
1.00488 -0.081543 -1.06445 
0 11 254 
1.00586 -0.0812378 -1.06055 
0 9 254 
1.00684 -0.0809326 -1.05664 
0 8 254 
1.01074 -0.0807495 -1.05469 
0 7 254 
1.01172 -0.0804443 -1.0498 
0 6 254 
1.0127 -0.0801392 -1.0459 
0 4 254 
1.01367 -0.079834 -1.04199 
0 3 254 
1.01465 -0.0795288 -1.03809 
0 3 254 
1.01465 -0.0792236 -1.03418 
0 2 254 
1.01758 -0.0790405 -1.03125 
0 2 254 
1.02051 -0.0788574 -1.0293 
0 2 254 
1.02344 -0.0787354 -1.02734 
0 2 254 
1.02832 -0.0787354 -1.02734 
0 2 254 
1.03125 -0.0785522 -1.02539 
0 2 254 
-2.09961 -0.310059 -3.8125 
111 0 0 
-2.06445 -0.307373 -3.7793 
126 0 0 
-2.02539 -0.304199 -3.74023 
143 0 0 
-1.9834 -0.300537 -3.69531 
162 0 0 
-1.93945 -0.296631 -3.64648 
188 0 0 
-1.89355 -0.292236 -3.59375 
212 0 0 
-1.84863 -0.287842 -3.53906 
232 0 0 
-1.80762 -0.283936 -3.49219 
247 0 0 
-1.77051 -0.280762 -3.45117 
254 6 0 
-1.7373 -0.278076 -3.41797 
254 16 0 
-1.70801 -0.275879 -3.39063 
254 26 0 
-1.68262 -0.274414 -3.37305 
254 33 0 
-1.65918 -0.273193 -3.35938 
254 40 0 
-1.6377 -0.272217 -3.3457 
254 45 0 
-1.61523 -0.27124 -3.33398 
254 52 0 
-1.59375 -0.27002 -3.32227 
254 60 0 
-1.57031 -0.268799 -3.30469 
254 69 0 
-1.5459 -0.267334 -3.28711 
254 81 0 
-1.51855 -0.265381 -3.26172 
254 96 0 
-1.49023 -0.262939 -3.23242 
254 112 0 
-1.45801 -0.26001 -3.19531 
254 130 0 
-1.42285 -0.256348 -3.15039 
254 151 0 
-1.38281 -0.251709 -3.0957 
254 175 0 
-1.33887 -0.24646 -3.0293 
254 201 0 
-1.29199 -0.240479 -2.95508 
254 226 0 
-1.24609 -0.234375 -2.88086 
254 252 0 
-1.20313 -0.228882 -2.81445 
235 254 19 
-1.16504 -0.223999 -2.75391 
216 254 38 
-1.13184 -0.220215 -2.70703 
203 254 51 
-1.10547 -0.217407 -2.67188 
194 254 59 
-1.08301 -0.215454 -2.64844 
189 254 65 
-1.06445 -0.214355 -2.63477 
185 254 69 
-1.0498 -0.213867 -2.62891 
183 254 71 
-1.03906 -0.214111 -2.63281 
183 254 71 
-1.0293 -0.214844 -2.64063 
185 254 69 
-1.02246 -0.21582 -2.6543 
189 254 65 
-1.01465 -0.217041 -2.66797 
192 254 62 
-1.00879 -0.218384 -2.68359 
196 254 57 
-1 -0.21936 -2.69727 
205 254 49 
-0.992188 -0.220337 -2.70898 
205 254 49 
-0.983398 -0.221191 -2.71875 
208 254 46 
-0.972656 -0.22168 -2.72461 
210 254 44 
-0.960449 -0.221924 -2.72656 
212 254 42 
-0.948242 -0.222046 -2.72852 
213 254 41 
-0.935059 -0.222046 -2.72852 
212 254 42 
-0.923828 -0.222412 -2.73438 
213 254 41 
-0.913086 -0.2229 -2.74023 
213 254 41 
-0.904785 -0.223999 -2.75391 
216 254 38 
-0.896973 -0.225342 -2.77148 
219 254 35 
-0.891113 -0.227173 -2.79297 
226 254 27 
-0.885742 -0.229248 -2.81836 
234 254 20 
-0.878418 -0.230835 -2.83789 
240 254 13 
-0.870117 -0.232178 -2.85547 
246 254 8 
-0.859863 -0.233032 -2.86523 
250 254 4 
-0.846191 -0.233032 -2.86523 
251 254 3 
-0.82959 -0.232178 -2.85547 
249 254 5 
-0.811035 -0.230713 -2.83594 
244 254 10 
-0.789551 -0.228394 -2.80664 
237 254 16 
-0.76709 -0.225708 -2.77539 
229 254 25 
-0.744141 -0.2229 -2.74023 
218 254 36 
-0.722168 -0.219971 -2.70508 
209 254 45 
-0.701172 -0.217529 -2.67383 
201 254 53 
-0.681152 -0.21521 -2.64453 
192 254 61 
-0.661133 -0.212891 -2.61719 
185 254 69 
-0.641113 -0.210327 -2.58594 
175 254 79 
-0.621094 -0.207642 -2.55273 
163 254 91 
-0.601074 -0.204956 -2.51953 
150 254 104 
-0.582031 -0.202515 -2.48828 
138 254 116 
-0.563477 -0.200073 -2.46094 
126 254 128 
-0.547363 -0.198486 -2.43945 
117 254 137 
-0.533203 -0.197388 -2.42773 
112 254 142 
-0.520508 -0.197144 -2.42383 
110 254 144 
-0.509277 -0.197144 -2.42383 
110 254 144 
-0.498779 -0.197388 -2.42773 
111 254 143 
-0.488037 -0.197754 -2.43164 
113 254 141 
-0.477783 -0.198242 -2.4375 
115 254 139 
-0.465088 -0.197754 -2.43164 
113 254 141 
-0.453613 -0.197754 -2.43164 
113 254 141 
-0.442383 -0.197998 -2.43359 
114 254 140 
-0.428955 -0.197144 -2.42383 
110 254 144 
-0.417236 -0.196899 -2.42188 
102 254 152 
-0.405762 -0.196899 -2.42188 
102 254 152 
-0.394287 -0.196899 -2.42188 
104 254 150 
-0.383301 -0.197144 -2.42383 
108 254 146 
-0.365967 -0.194092 -2.38672 
104 254 150 
-0.354492 -0.19397 -2.38477 
108 254 146 
-0.342773 -0.193726 -2.38281 
117 254 137 
-0.341064 -0.199341 -2.44922 
135 254 119 
-0.330566 -0.199951 -2.45898 
136 254 118 
-0.30542 -0.191406 -2.35352 
107 254 147 
-0.294922 -0.191895 -2.35938 
104 254 150 
-0.284668 -0.192627 -2.36719 
104 254 150 
-0.274902 -0.193604 -2.38086 
104 254 150 
-0.264893 -0.194458 -2.39063 
103 254 151 
-0.254395 -0.195068 -2.39844 
101 254 153 
-0.244019 -0.195801 -2.40625 
99 254 155 
-0.232788 -0.195923 -2.4082 
96 254 158 
-0.221436 -0.195923 -2.4082 
92 254 161 
-0.209595 -0.195557 -2.4043 
89 254 164 
-0.197754 -0.195068 -2.39844 
86 254 168 
-0.185913 -0.19458 -2.39258 
83 254 171 
-0.174194 -0.194092 -2.38672 
81 254 173 
-0.162354 -0.193481 -2.37695 
79 254 175 
-0.150513 -0.192749 -2.36914 
77 254 177 
-0.138794 -0.192139 -2.36133 
74 254 180 
-0.127075 -0.191284 -2.35156 
71 254 183 
-0.115479 -0.19043 -2.3418 
69 254 185 
-0.104065 -0.189697 -2.33203 
65 254 189 
-0.0926514 -0.189087 -2.32422 
61 254 192 
-0.0814819 -0.188599 -2.31836 
60 254 194 
-0.0703735 -0.188232 -2.31445 
58 254 196 
-0.0594177 -0.188232 -2.31445 
58 254 196 
-0.0484619 -0.188232 -2.31445 
58 254 196 
-0.0375977 -0.188599 -2.31836 
59 254 195 
-0.0266724 -0.188965 -2.32227 
60 254 194 
-0.0157166 -0.189453 -2.32813 
61 254 192 
-0.0047226 -0.190063 -2.33594 
64 254 190 
0.00635529 -0.190796 -2.3457 
67 254 187 
0.0175018 -0.191406 -2.35352 
72 254 182 
0.0287933 -0.192383 -2.36523 
77 254 177 
0.0401611 -0.193237 -2.375 
83 254 171 
0.0516968 -0.194458 -2.39063 
90 254 164 
0.0634155 -0.195557 -2.4043 
99 254 155 
0.0752563 -0.196899 -2.42188 
108 254 146 
0.0873413 -0.198242 -2.4375 
117 254 137 
0.0996094 -0.199829 -2.45508 
125 254 128 
0.112183 -0.201416 -2.47656 
134 254 120 
0.124695 -0.202759 -2.49219 
142 254 112 
0.137207 -0.203979 -2.50781 
147 254 107 
0.149902 -0.204956 -2.51953 
151 254 103 
0.162109 -0.205322 -2.52344 
152 254 102 
0.17395 -0.205322 -2.52344 
152 254 102 
0.185547 -0.204834 -2.51758 
150 254 104 
0.196289 -0.203613 -2.50391 
146 254 108 
0.207275 -0.202759 -2.49219 
142 254 112 
0.21814 -0.201904 -2.48242 
138 254 116 
0.22937 -0.201416 -2.47656 
135 254 119 
0.240845 -0.201294 -2.47461 
134 254 120 
0.253418 -0.201904 -2.48242 
136 254 118 
0.266846 -0.203247 -2.5 
143 254 111 
0.282227 -0.205811 -2.5293 
153 254 101 
0.299072 -0.209351 -2.57227 
167 254 87 
0.318115 -0.213867 -2.62891 
185 254 69 
0.338867 -0.21936 -2.69727 
202 254 52 
0.361328 -0.225342 -2.77148 
246 254 8 
0.384033 -0.231079 -2.83984 
246 254 8 
0.406006 -0.236084 -2.90234 
254 241 0 
0.426025 -0.239624 -2.94531 
254 224 0 
0.443604 -0.241577 -2.9707 
254 214 0 
0.45874 -0.242065 -2.97656 
254 212 0 
0.471436 -0.241455 -2.96875 
254 216 0 
0.483154 -0.240234 -2.95313 
254 223 0 
0.493652 -0.238647 -2.93359 
254 231 0 
0.504395 -0.237061 -2.91406 
254 240 0 
0.515137 -0.235718 -2.89844 
254 247 0 
0.526367 -0.234619 -2.88281 
254 252 0 
0.538086 -0.233765 -2.87305 
250 254 4 
0.549805 -0.233032 -2.86523 
247 254 7 
0.5625 -0.232788 -2.86133 
244 254 10 
0.576172 -0.232788 -2.86133 
244 254 10 
0.590332 -0.23291 -2.86328 
244 254 10 
0.60498 -0.233398 -2.86914 
245 254 9 
0.620117 -0.233887 -2.875 
247 254 7 
0.635254 -0.234619 -2.88281 
249 254 5 
0.650391 -0.235107 -2.89063 
252 254 2 
0.666016 -0.235718 -2.89844 
254 254 0 
0.681152 -0.236206 -2.9043 
254 251 0 
0.696289 -0.236694 -2.91016 
254 250 0 
0.711426 -0.237305 -2.91602 
254 248 0 
0.727051 -0.237793 -2.92188 
254 246 0 
0.742188 -0.238281 -2.92969 
254 243 0 
0.758789 -0.239136 -2.93945 
254 240 0 
0.775391 -0.239868 -2.94922 
254 237 0 
0.791992 -0.240723 -2.95898 
254 233 0 
0.80957 -0.241821 -2.97266 
254 229 0 
0.827148 -0.242798 -2.98438 
254 223 0 
0.845215 -0.243896 -2.99805 
254 216 0 
0.863281 -0.245117 -3.01367 
254 211 0 
0.882324 -0.24646 -3.0293 
254 205 0 
0.900391 -0.247437 -3.04102 
254 199 0 
0.917969 -0.248291 -3.05273 
254 191 0 
0.935547 -0.249146 -3.0625 
254 187 0 
0.951172 -0.249512 -3.06641 
254 182 0 
0.967773 -0.25 -3.07227 
254 180 0 
0.98291 -0.25 -3.07422 
254 177 0 
0.999023 -0.250488 -3.07813 
254 175 0 
1.01465 -0.250732 -3.08398 
254 172 0 
1.03223 -0.251465 -3.0918 
254 169 0 
1.04883 -0.251953 -3.09961 
254 166 0 
1.06836 -0.253174 -3.11133 
254 160 0 
1.08887 -0.254395 -3.12891 
254 153 0 
1.11035 -0.256104 -3.14844 
254 146 0 
1.13379 -0.257813 -3.17188 
254 135 0 
1.15723 -0.259766 -3.19336 
254 124 0 
1.18066 -0.261719 -3.21875 
254 110 0 
1.20508 -0.263672 -3.24219 
254 98 0 
1.22754 -0.265381 -3.26172 
254 86 0 
1.24902 -0.266602 -3.2793 
254 69 0 
1.26953 -0.267578 -3.29102 
254 69 0 
1.28906 -0.268555 -3.30078 
254 63 0 
1.30859 -0.269043 -3.30859 
254 61 0 
1.3252 -0.269531 -3.3125 
254 59 0 
1.34375 -0.27002 -3.32031 
254 56 0 
1.36328 -0.270752 -3.32813 
254 53 0 
1.38379 -0.271729 -3.33984 
254 49 0 
1.40625 -0.272949 -3.35742 
254 44 0 
1.43066 -0.274658 -3.37695 
254 38 0 
1.45801 -0.276855 -3.4043 
254 28 0 
1.48926 -0.279785 -3.43945 
254 14 0 
1.52344 -0.282959 -3.48047 
253 0 0 
1.56055 -0.286621 -3.52539 
237 0 0 
1.59961 -0.290771 -3.57617 
217 0 0 
1.64258 -0.29541 -3.63281 
191 0 0 
1.68457 -0.299805 -3.6875 
162 0 0 
1.72559 -0.304199 -3.73828 
143 0 0 
1.76172 -0.307373 -3.77734 
122 0 0 
1.96582 -0.320068 -3.93555 
0 0 0 
1.98242 -0.319824 -3.93164 
0 0 0 
2.00195 -0.320068 -3.93555 
0 0 0 
2.02148 -0.320313 -3.9375 
0 0 0 
2.03906 -0.320068 -3.93359 
0 0 0 
2.05469 -0.31958 -3.92969 
0 0 0 
2.06836 -0.318848 -3.91992 
62 0 0 
2.08203 -0.317871 -3.91016 
66 0 0 
2.09961 -0.317871 -3.9082 
67 0 0 
2.11133 -0.316895 -3.89453 
72 0 0 
2.125 -0.316162 -3.88672 
75 0 0 
2.13867 -0.31543 -3.87891 
78 0 0 
2.13867 -0.312744 -3.8457 
92 0 0 
2.1582 -0.313232 -3.84961 
90 0 0 
2.17578 -0.312744 -3.8457 
92 0 0 
2.19141 -0.3125 -3.8418 
94 0 0 
2.20703 -0.312256 -3.83984 
95 0 0 
2.21875 -0.311279 -3.82813 
83 0 0 
2.25781 -0.314209 -3.86328 
77 0 0 
2.27148 -0.313721 -3.85547 
83 0 0 
2.28516 -0.312988 -3.84766 
88 0 0 
2.29688 -0.312012 -3.83594 
96 0 0 
2.30469 -0.310547 -3.81836 
102 0 0 
2.31641 -0.309814 -3.80859 
107 0 0 
2.32813 -0.308838 -3.79883 
110 0 0 
2.33984 -0.308105 -3.78906 
113 0 0 
2.35156 -0.307373 -3.77734 
116 0 0 
2.36328 -0.306396 -3.76758 
120 0 0 
2.37305 -0.30542 -3.75586 
128 0 0 
2.38477 -0.304688 -3.74805 
128 0 0 
2.39453 -0.303467 -3.73242 
135 0 0 
2.40234 -0.30249 -3.71875 
143 0 0 
2.41016 -0.30127 -3.70313 
151 0 0 
2.41797 -0.300049 -3.68945 
159 0 0 
2.42773 -0.299072 -3.67773 
168 0 0 
2.43945 -0.29834 -3.66992 
177 0 0 
2.45117 -0.297852 -3.66016 
182 0 0 
2.4668 -0.297363 -3.65625 
185 0 0 
2.48242 -0.297119 -3.6543 
187 0 0 
2.49805 -0.297119 -3.65234 
187 0 0 
2.51367 -0.296875 -3.65039 
187 0 0 
2.5293 -0.296631 -3.64844 
189 0 0 
2.54102 -0.296143 -3.64063 
191 0 0 
2.55078 -0.295166 -3.63086 
197 0 0 
2.55859 -0.293945 -3.61523 
205 0 0 
2.5625 -0.29248 -3.59766 
215 0 0 
2.5625 -0.290771 -3.57422 
225 0 0 
2.5625 -0.288818 -3.54883 
234 0 0 
2.5625 -0.286865 -3.52734 
242 0 0 
2.56445 -0.285156 -3.50586 
249 0 0 
2.56836 -0.283936 -3.49023 
254 1 0 
2.57617 -0.282959 -3.47852 
254 5 0 
2.58789 -0.282227 -3.4707 
254 7 0 
2.60156 -0.282227 -3.46875 
254 10 0 
2.62109 -0.282227 -3.4707 
254 11 0 
2.63672 -0.282227 -3.4707 
254 12 0 
2.6543 -0.282471 -3.47461 
254 14 0 
2.66992 -0.282227 -3.4707 
254 16 0 
2.68555 -0.282227 -3.46875 
254 19 0 
2.69531 -0.281738 -3.46289 
254 23 0 
2.70703 -0.281006 -3.45508 
254 26 0 
2.71484 -0.280273 -3.44531 
254 30 0 
2.72266 -0.279297 -3.43555 
254 35 0 
2.73047 -0.278564 -3.42383 
254 41 0 
2.73828 -0.277588 -3.41406 
254 45 0 
2.74609 -0.276855 -3.4043 
254 51 0 
2.75391 -0.275879 -3.39258 
254 56 0 
2.75977 -0.274902 -3.38086 
254 63 0 
2.76563 -0.273926 -3.36914 
254 71 0 
2.77148 -0.272949 -3.35742 
254 80 0 
2.77539 -0.271729 -3.3418 
254 91 0 
2.78125 -0.270752 -3.33008 
254 100 0 
2.78711 -0.269775 -3.31836 
254 108 0 
2.79102 -0.268799 -3.30469 
254 115 0 
2.80859 -0.269043 -3.30664 
254 118 0 
2.68359 -0.255615 -3.14258 
0 0 0 
0.992188 -0.0904541 -1.1123 
0 35 254 
0.99707 -0.0904541 -1.1123 
0 34 254 
1 -0.090271 -1.10938 
0 32 254 
1.00391 -0.0900879 -1.10742 
0 31 254 
1.00488 -0.0897827 -1.10352 
0 29 254 
1.00488 -0.0892944 -1.09766 
0 26 254 
1.00488 -0.0887451 -1.09082 
0 24 254 
1.00391 -0.0882568 -1.08496 
0 21 254 
1.00488 -0.0879517 -1.08105 
0 18 254 
1.00488 -0.0874634 -1.0752 
0 15 254 
1.00391 -0.0869141 -1.06836 
0 13 254 
1.00488 -0.0866089 -1.06445 
0 11 254 
1.00586 -0.0862427 -1.06055 
0 9 254 
1.00684 -0.0859375 -1.05664 
0 8 254 
1.00879 -0.0855713 -1.05176 
0 7 254 
1.00977 -0.0852661 -1.04785 
0 6 254 
1.01074 -0.0848999 -1.04395 
0 4 254 
1.01172 -0.0845947 -1.04004 
0 3 254 
1.01465 -0.0844116 -1.03809 
0 3 254 
1.01465 -0.0841064 -1.03418 
0 2 254 
1.01758 -0.0839233 -1.03125 
0 2 254 
1.02051 -0.0837402 -1.0293 
0 2 254 
1.02344 -0.0836182 -1.02734 
0 2 254 
1.02832 -0.0836182 -1.02734 
0 2 254 
1.0332 -0.0836182 -1.02734 
0 2 254 
-2.10352 -0.328857 -3.82031 
108 0 0 
-2.06836 -0.326172 -3.79102 
122 0 0 
-2.03125 -0.322998 -3.75391 
139 0 0 
-1.99121 -0.319336 -3.71094 
158 0 0 
-1.94727 -0.314941 -3.66016 
183 0 0 
-1.90137 -0.310547 -3.60742 
207 0 0 
-1.85645 -0.305908 -3.55469 
228 0 0 
-1.81348 -0.301514 -3.50195 
244 0 0 
-1.77441 -0.297607 -3.45898 
254 3 0 
-1.74023 -0.294678 -3.42383 
254 16 0 
-1.70996 -0.292236 -3.39648 
254 26 0 
-1.68359 -0.290527 -3.375 
254 35 0 
-1.65918 -0.289063 -3.35938 
254 42 0 
-1.63477 -0.287598 -3.3418 
254 49 0 
-1.6123 -0.286377 -3.32813 
254 56 0 
-1.58887 -0.284912 -3.31055 
254 66 0 
-1.56348 -0.283203 -3.29102 
254 78 0 
-1.53613 -0.281006 -3.26563 
254 93 0 
-1.50781 -0.278564 -3.23633 
254 108 0 
-1.47656 -0.275879 -3.20508 
254 125 0 
-1.44336 -0.272217 -3.16406 
254 145 0 
-1.40527 -0.268066 -3.11328 
254 167 0 
-1.36328 -0.262695 -3.05273 
254 192 0 
-1.31836 -0.256592 -2.98242 
254 218 0 
-1.27051 -0.25 -2.90625 
254 246 0 
-1.22363 -0.243652 -2.83008 
239 254 14 
-1.18066 -0.237549 -2.75977 
218 254 36 
-1.14453 -0.232788 -2.70508 
203 254 51 
-1.11328 -0.229126 -2.66211 
192 254 62 
-1.08789 -0.22644 -2.63086 
185 254 69 
-1.06836 -0.224854 -2.61133 
178 254 76 
-1.05176 -0.223999 -2.60156 
175 254 79 
-1.03809 -0.223755 -2.59961 
175 254 79 
-1.02832 -0.224365 -2.60547 
176 254 78 
-1.02051 -0.225342 -2.61914 
180 254 74 
-1.01367 -0.226685 -2.63281 
183 254 71 
-1.00879 -0.228271 -2.65039 
189 254 65 
-1.00195 -0.229614 -2.66797 
193 254 60 
-0.995117 -0.230835 -2.68164 
202 254 52 
-0.987305 -0.231934 -2.69531 
202 254 52 
-0.978027 -0.232788 -2.70508 
205 254 49 
-0.967285 -0.233398 -2.71094 
208 254 46 
-0.955566 -0.233521 -2.71289 
208 254 46 
-0.942383 -0.233521 -2.71289 
208 254 46 
-0.928711 -0.233398 -2.71094 
208 254 46 
-0.915527 -0.233154 -2.70898 
207 254 47 
-0.903809 -0.233521 -2.71289 
208 254 46 
-0.893066 -0.234009 -2.71875 
209 254 45 
-0.884277 -0.235107 -2.73242 
213 254 41 
-0.876465 -0.236572 -2.74805 
216 254 38 
-0.869629 -0.238159 -2.76563 
222 254 32 
-0.86084 -0.23938 -2.78125 
229 254 25 
-0.851563 -0.240479 -2.79297 
232 254 22 
-0.839355 -0.240845 -2.79688 
235 254 19 
-0.824707 -0.240479 -2.79297 
235 254 19 
-0.808594 -0.239502 -2.7832 
232 254 22 
-0.790039 -0.237915 -2.76367 
228 254 26 
-0.770996 -0.235962 -2.74219 
220 254 34 
-0.75 -0.233521 -2.71289 
213 254 41 
-0.729004 -0.231079 -2.68359 
205 254 49 
-0.709473 -0.22876 -2.6582 
197 254 57 
-0.69043 -0.226685 -2.63281 
191 254 63 
-0.672363 -0.224854 -2.61133 
185 254 69 
-0.654297 -0.2229 -2.58984 
177 254 77 
-0.636719 -0.220947 -2.56641 
168 254 86 
-0.618164 -0.218628 -2.54102 
158 254 96 
-0.599121 -0.216187 -2.51172 
147 254 107 
-0.581055 -0.213867 -2.48438 
135 254 119 
-0.562988 -0.211548 -2.45898 
125 254 128 
-0.547363 -0.209961 -2.43945 
117 254 137 
-0.532715 -0.20874 -2.42578 
111 254 143 
-0.52002 -0.208252 -2.41992 
108 254 146 
-0.508301 -0.208252 -2.41992 
107 254 147 
-0.497559 -0.208374 -2.42188 
107 254 147 
-0.486328 -0.208618 -2.42383 
107 254 147 
-0.475342 -0.20874 -2.42578 
106 254 148 
-0.463135 -0.208374 -2.42188 
104 254 150 
-0.45166 -0.208374 -2.42188 
104 254 150 
-0.44043 -0.208618 -2.42383 
104 254 150 
-0.428467 -0.208252 -2.41992 
102 254 152 
-0.416504 -0.208008 -2.41602 
98 254 156 
-0.404785 -0.207886 -2.41406 
98 254 156 
-0.392578 -0.20752 -2.41016 
99 254 155 
-0.378662 -0.206055 -2.39453 
97 254 157 
-0.365234 -0.204834 -2.38086 
99 254 155 
-0.353027 -0.204346 -2.37305 
101 254 153 
-0.341064 -0.203979 -2.36914 
106 254 148 
-0.328369 -0.203125 -2.35938 
105 254 149 
-0.316406 -0.202515 -2.35352 
