ply
format ascii 1.0
comment pointcloud saved from Realsense Viewer
element vertex 1788
property float32 x
property float32 y
property float32 z
end_header
1.92676 0.623535 -1.91602 
-3.39648 1.19629 -3.73047 
-3.36523 1.19238 -3.7168 
-3.32031 1.18848 -3.70508 
-3.2832 1.18164 -3.68359 
-3.27734 1.18555 -3.69531 
-3.26172 1.18555 -3.69727 
-3.25781 1.19141 -3.71484 
-3.25977 1.19824 -3.73633 
-3.25 1.20117 -3.74414 
-3.25781 1.21094 -3.77539 
-3.23633 1.20996 -3.77148 
-3.17578 1.19336 -3.7207 
-2.92383 1.25098 -3.90234 
-2.90234 1.25 -3.89648 
-2.89258 1.25391 -3.91016 
-2.87305 1.25293 -3.9082 
-2.8418 1.24707 -3.88867 
-2.81836 1.24512 -3.88281 
-2.79297 1.24316 -3.875 
-2.77539 1.24316 -3.875 
-2.75 1.23926 -3.86523 
-2.73047 1.23828 -3.86328 
-2.73047 1.24707 -3.88867 
-2.70898 1.24609 -3.88477 
-2.68555 1.24316 -3.87695 
0.270752 1.17969 -3.67773 
0.290283 1.1875 -3.70313 
0.308105 1.18848 -3.70508 
0.324463 1.18457 -3.69336 
0.343018 1.1875 -3.70313 
0.359375 1.18359 -3.69141 
0.375977 1.18164 -3.68359 
0.392334 1.17773 -3.67383 
0.408691 1.17578 -3.66406 
0.425049 1.17285 -3.65625 
0.441895 1.17188 -3.65234 
0.458984 1.1709 -3.65039 
0.476807 1.17188 -3.6543 
0.495361 1.17578 -3.66406 
0.513672 1.17773 -3.67383 
0.529785 1.1748 -3.66211 
0.535645 1.15039 -3.58594 
0.556152 1.15723 -3.60938 
0.666992 1.17285 -3.65625 
0.677246 1.16016 -3.61719 
0.688965 1.15137 -3.5918 
0.699707 1.1416 -3.55859 
0.70459 1.12207 -3.49805 
0.708496 1.10254 -3.4375 
0.719727 1.09473 -3.41406 
0.725098 1.07813 -3.36328 
0.731445 1.06445 -3.32031 
0.739258 1.05371 -3.28516 
0.748535 1.04492 -3.25781 
0.759766 1.03906 -3.24023 
0.770996 1.0332 -3.22266 
0.782715 1.0293 -3.20898 
0.794922 1.02539 -3.19531 
0.807617 1.02148 -3.18555 
0.820313 1.01953 -3.17773 
0.834473 1.01758 -3.17383 
0.847656 1.01563 -3.16797 
0.86084 1.01367 -3.16211 
0.874023 1.01172 -3.1543 
0.88623 1.00879 -3.14453 
0.897461 1.00488 -3.13281 
0.907715 0.999512 -3.11523 
0.916992 0.993652 -3.09766 
0.924316 0.98584 -3.07227 
0.931641 0.978516 -3.05078 
0.938477 0.970703 -3.02539 
0.945801 0.963379 -3.00195 
0.953613 0.956543 -2.98242 
0.962891 0.952148 -2.96875 
0.972656 0.948242 -2.95508 
0.983398 0.944824 -2.94531 
0.994629 0.942383 -2.9375 
1.00586 0.939453 -2.92969 
1.0166 0.937012 -2.91992 
1.02637 0.933594 -2.91016 
1.03711 0.930176 -2.90039 
1.0459 0.92627 -2.88867 
1.05469 0.921875 -2.87305 
1.0625 0.916992 -2.85938 
1.07031 0.912598 -2.84375 
1.08008 0.90918 -2.83398 
1.08984 0.905762 -2.82422 
1.10156 0.904785 -2.82031 
1.11426 0.903809 -2.81836 
1.12793 0.904785 -2.82031 
1.14258 0.905273 -2.82227 
1.15723 0.906738 -2.82617 
1.1709 0.906738 -2.82617 
1.18359 0.905762 -2.82422 
1.19434 0.903809 -2.81836 
1.20313 0.900879 -2.80664 
1.20996 0.895996 -2.79297 
1.21582 0.890625 -2.77734 
1.21875 0.883301 -2.75391 
1.2207 0.875488 -2.72852 
1.22363 0.868164 -2.70703 
1.22754 0.861816 -2.68555 
1.23145 0.855957 -2.66797 
1.23828 0.852051 -2.65625 
1.24609 0.848633 -2.64453 
1.25391 0.845215 -2.63477 
1.26074 0.841797 -2.625 
1.2666 0.837402 -2.60938 
1.27051 0.832031 -2.59375 
1.27441 0.826172 -2.57617 
1.27832 0.820801 -2.55859 
1.2832 0.816406 -2.54492 
1.29102 0.813477 -2.53711 
1.30078 0.8125 -2.53125 
1.31348 0.812988 -2.5332 
1.32715 0.813477 -2.53711 
1.34082 0.814941 -2.54102 
1.35352 0.81543 -2.54297 
1.36523 0.814941 -2.54102 
1.375 0.813477 -2.53711 
1.38184 0.811035 -2.52734 
1.38574 0.806152 -2.51367 
1.3877 0.800293 -2.49414 
1.3877 0.793945 -2.47461 
1.38672 0.786621 -2.45117 
1.38574 0.779297 -2.42969 
1.38379 0.771973 -2.40625 
1.38281 0.764648 -2.38477 
1.38281 0.758789 -2.36523 
1.38574 0.754395 -2.35156 
1.38965 0.750488 -2.33789 
1.39648 0.748535 -2.33203 
1.40527 0.74707 -2.32813 
1.41602 0.74707 -2.32813 
1.42871 0.747559 -2.33008 
1.44238 0.749023 -2.33398 
1.4541 0.749512 -2.33594 
1.46777 0.750977 -2.3418 
1.47949 0.750977 -2.3418 
1.48926 0.750488 -2.33789 
1.49609 0.748535 -2.33203 
1.50293 0.746094 -2.32617 
1.50781 0.743164 -2.31641 
1.51074 0.739258 -2.30469 
1.51367 0.735352 -2.29102 
1.51758 0.731934 -2.28125 
1.52148 0.728516 -2.27148 
1.52637 0.726074 -2.26367 
1.5332 0.724121 -2.25586 
1.54199 0.723145 -2.25391 
1.55176 0.722656 -2.25195 
1.5625 0.722656 -2.25195 
1.57227 0.722656 -2.25195 
1.58301 0.722656 -2.25195 
1.59277 0.722168 -2.25 
1.60156 0.721191 -2.24805 
1.60938 0.719727 -2.24414 
1.61719 0.71875 -2.24023 
1.625 0.717285 -2.23633 
1.63086 0.715332 -2.23047 
1.63672 0.713379 -2.22461 
1.64258 0.711426 -2.2168 
1.64746 0.708496 -2.20898 
1.65332 0.706543 -2.20313 
1.66016 0.705566 -2.19922 
1.66602 0.703613 -2.19336 
1.67285 0.702148 -2.18945 
1.67676 0.699707 -2.17969 
1.67969 0.696289 -2.16992 
1.68066 0.692383 -2.1582 
1.68066 0.688477 -2.14648 
1.67773 0.683105 -2.12891 
1.67676 0.678223 -2.11523 
1.6748 0.673828 -2.09961 
1.67383 0.668945 -2.08594 
1.67383 0.665039 -2.07422 
1.67285 0.661133 -2.06055 
1.67285 0.657227 -2.04883 
1.67383 0.653809 -2.03906 
1.67383 0.649902 -2.02539 
1.67676 0.647461 -2.01758 
1.67871 0.644531 -2.00977 
1.68555 0.643555 -2.00586 
1.69336 0.642578 -2.00391 
1.70215 0.642578 -2.00391 
1.71387 0.643555 -2.00586 
1.72363 0.643555 -2.00586 
1.73242 0.643555 -2.00586 
1.74219 0.643555 -2.00586 
1.75 0.642578 -2.00391 
1.75586 0.641602 -2 
1.76172 0.640137 -1.99609 
1.76758 0.638672 -1.99219 
1.77148 0.636719 -1.98535 
1.77539 0.634766 -1.97949 
1.7793 0.632813 -1.97363 
1.7832 0.630859 -1.9668 
1.78613 0.628906 -1.96094 
1.79199 0.627441 -1.95703 
1.79883 0.626953 -1.95508 
1.80664 0.626465 -1.95313 
1.81445 0.625488 -1.95117 
1.81934 0.624512 -1.94629 
1.82324 0.622559 -1.94043 
1.82813 0.621094 -1.93652 
1.83301 0.619629 -1.93262 
1.83887 0.618164 -1.92773 
1.87305 0.626953 -1.95508 
1.87891 0.625488 -1.95117 
1.88379 0.624512 -1.94629 
1.88867 0.623047 -1.94238 
1.89063 0.620117 -1.93457 
1.89355 0.618164 -1.92773 
1.89453 0.615723 -1.91992 
1.89941 0.614258 -1.91602 
1.90625 0.61377 -1.91406 
1.87012 0.599121 -1.86816 
1.92676 0.614258 -1.91602 
-3.38672 1.16992 -3.70117 
-3.36523 1.16895 -3.69727 
-3.33984 1.16504 -3.6875 
-3.32227 1.16504 -3.6875 
-3.2832 1.15723 -3.66211 
-3.27344 1.16113 -3.67383 
-3.2168 1.14648 -3.62695 
-3.21484 1.15137 -3.64453 
-3.17969 1.14551 -3.625 
-3.16602 1.14746 -3.63086 
-3.23828 1.17969 -3.73242 
-3.23633 1.18457 -3.75 
-3.20508 1.18066 -3.73438 
-3.19531 1.18262 -3.74219 
-2.92383 1.23242 -3.90234 
-2.91602 1.2373 -3.91602 
-2.89453 1.23633 -3.91211 
-2.875 1.23535 -3.91016 
-2.84766 1.23145 -3.89648 
-2.82227 1.22852 -3.88867 
-2.80078 1.22754 -3.88477 
-2.77148 1.22266 -3.86914 
-2.76172 1.22656 -3.88086 
-2.73828 1.22461 -3.875 
-2.71289 1.2207 -3.86523 
-2.71484 1.23047 -3.89258 
-2.6875 1.22559 -3.87891 
0.240356 1.18262 -3.74219 
0.256104 1.17383 -3.71484 
0.273926 1.17578 -3.7207 
0.289551 1.16699 -3.69336 
0.30542 1.16113 -3.67383 
0.321289 1.15527 -3.65625 
0.34082 1.16309 -3.68164 
0.356689 1.1582 -3.66406 
0.373047 1.15527 -3.65625 
0.38916 1.15137 -3.64453 
0.405518 1.14941 -3.63672 
0.421143 1.14551 -3.62305 
0.438232 1.14453 -3.62109 
0.455322 1.14453 -3.62109 
0.473145 1.14648 -3.62695 
0.491943 1.15039 -3.64063 
0.51123 1.15527 -3.6543 
0.526367 1.15039 -3.64063 
0.535156 1.13281 -3.58398 
0.553711 1.13574 -3.5957 
0.648926 1.15332 -3.65039 
0.663574 1.14941 -3.63672 
0.674316 1.13867 -3.60352 
0.695313 1.14551 -3.62305 
0.70459 1.13184 -3.58203 
0.710938 1.11523 -3.5293 
0.714844 1.0957 -3.4668 
0.719238 1.07813 -3.41211 
0.725098 1.0625 -3.36328 
0.731934 1.0498 -3.32227 
0.739746 1.03809 -3.28711 
0.748535 1.0293 -3.25781 
0.758301 1.02148 -3.23242 
0.768555 1.01465 -3.21289 
0.778809 1.00879 -3.19141 
0.789551 1.00391 -3.17578 
0.80127 0.999023 -3.16211 
0.813965 0.996582 -3.15234 
0.827148 0.994629 -3.14648 
0.841797 0.994141 -3.14453 
0.855469 0.992676 -3.14063 
0.869629 0.992188 -3.13867 
0.883789 0.991211 -3.13672 
0.896973 0.989258 -3.13086 
0.908691 0.986328 -3.11914 
0.919922 0.982422 -3.10742 
0.930176 0.977539 -3.09375 
0.938477 0.971191 -3.07227 
0.947754 0.965332 -3.05469 
0.955566 0.958984 -3.0332 
0.963867 0.953125 -3.01563 
0.973633 0.948242 -3 
0.983887 0.944336 -2.98828 
0.993652 0.94043 -2.97656 
1.00391 0.9375 -2.9668 
1.01465 0.934082 -2.95508 
1.02539 0.930664 -2.94531 
1.03418 0.927246 -2.93359 
1.04395 0.92334 -2.91992 
1.05371 0.919434 -2.9082 
1.06152 0.914551 -2.89453 
1.07031 0.910156 -2.87891 
1.07813 0.905762 -2.86523 
1.08691 0.901855 -2.85352 
1.09766 0.898926 -2.84375 
1.1084 0.896973 -2.83789 
1.12012 0.895996 -2.83398 
1.13379 0.895996 -2.83398 
1.14746 0.895996 -2.83398 
1.16113 0.895996 -2.83398 
1.17285 0.89502 -2.83203 
1.18457 0.894043 -2.82813 
1.19531 0.891113 -2.82031 
1.2041 0.888184 -2.81055 
1.21094 0.883301 -2.79492 
1.2168 0.878418 -2.7793 
1.21973 0.871094 -2.75586 
1.22168 0.863281 -2.73242 
1.22461 0.855957 -2.70898 
1.22852 0.849609 -2.6875 
1.2334 0.844238 -2.67188 
1.24023 0.84082 -2.66016 
1.24902 0.837891 -2.65039 
1.25684 0.834961 -2.64063 
1.26367 0.831543 -2.63086 
1.26953 0.827148 -2.61719 
1.27344 0.821777 -2.59961 
1.27734 0.815918 -2.58203 
1.28027 0.810059 -2.5625 
1.28418 0.804688 -2.54688 
1.29004 0.800781 -2.5332 
1.29785 0.79834 -2.52539 
1.30859 0.797852 -2.52344 
1.32031 0.797852 -2.52344 
1.33301 0.79834 -2.52539 
1.34668 0.798828 -2.52734 
1.3584 0.798828 -2.52734 
1.36816 0.797852 -2.52344 
1.375 0.794922 -2.51563 
1.38086 0.791016 -2.50391 
1.38184 0.785156 -2.48438 
1.38184 0.778809 -2.46484 
1.38281 0.772461 -2.44336 
1.37988 0.764648 -2.41992 
1.37793 0.757324 -2.39648 
1.37793 0.750977 -2.375 
1.37891 0.745605 -2.35938 
1.38184 0.741211 -2.3457 
1.38672 0.737793 -2.33398 
1.39551 0.736816 -2.33008 
1.40527 0.73584 -2.32813 
1.41602 0.73584 -2.32813 
1.42969 0.737305 -2.33203 
1.44336 0.73877 -2.33594 
1.45801 0.740723 -2.34375 
1.47168 0.741699 -2.34766 
1.4834 0.741699 -2.34766 
1.49414 0.741699 -2.34766 
1.50293 0.740723 -2.34375 
1.50879 0.737793 -2.33398 
1.5127 0.734863 -2.32422 
1.51758 0.731445 -2.31445 
1.51953 0.727539 -2.30273 
1.52246 0.723633 -2.28906 
1.52637 0.720215 -2.2793 
1.53027 0.717285 -2.26953 
1.53711 0.715332 -2.26367 
1.54492 0.713867 -2.25781 
1.55371 0.713379 -2.25586 
1.56445 0.713379 -2.25586 
1.57422 0.712402 -2.25391 
1.58496 0.712402 -2.25391 
1.5957 0.712402 -2.25391 
1.60449 0.711914 -2.25195 
1.6123 0.710449 -2.24805 
1.62012 0.709473 -2.24414 
1.62793 0.708008 -2.24023 
1.63379 0.706055 -2.23438 
1.6416 0.70459 -2.23047 
1.64746 0.702637 -2.22461 
1.65332 0.700684 -2.2168 
1.66016 0.699707 -2.21289 
1.66797 0.698242 -2.20898 
1.67578 0.696777 -2.20508 
1.68066 0.694824 -2.19922 
1.68555 0.692383 -2.19141 
1.68945 0.689941 -2.18164 
1.68848 0.685059 -2.16797 
1.6875 0.680664 -2.1543 
1.68262 0.674805 -2.13477 
1.67871 0.668945 -2.11719 
1.6748 0.664063 -2.09961 
1.67188 0.658691 -2.08398 
1.66895 0.65332 -2.06836 
1.66797 0.649414 -2.05469 
1.66992 0.646484 -2.04492 
1.6709 0.643066 -2.03516 
1.67188 0.639648 -2.02344 
1.6748 0.637207 -2.01563 
1.67871 0.635254 -2.00977 
1.68652 0.634766 -2.00781 
1.69434 0.633789 -2.00586 
1.7041 0.633789 -2.00586 
1.71387 0.633789 -2.00586 
1.72363 0.633789 -2.00586 
1.73242 0.633789 -2.00586 
1.74023 0.633301 -2.00391 
1.74805 0.632813 -2.00195 
1.75586 0.631836 -2 
1.76172 0.630859 -1.99609 
1.76758 0.629395 -1.99219 
1.77344 0.62793 -1.9873 
1.77734 0.625977 -1.98145 
1.78125 0.624023 -1.97559 
1.78418 0.62207 -1.96875 
1.78809 0.620117 -1.96289 
1.79395 0.619141 -1.95898 
1.80078 0.618164 -1.95703 
1.80664 0.617188 -1.95313 
1.81445 0.616211 -1.95117 
1.82129 0.615723 -1.94824 
1.82813 0.615234 -1.94629 
1.83594 0.614258 -1.94434 
1.84277 0.61377 -1.94238 
1.84863 0.612305 -1.93848 
1.85547 0.611816 -1.93652 
1.99902 0.65625 -2.07617 
1.89551 0.619141 -1.95898 
1.90137 0.617676 -1.95508 
1.90234 0.615234 -1.94629 
1.87305 0.602539 -1.90723 
1.9082 0.611328 -1.93457 
1.91406 0.609863 -1.92969 
1.9248 0.610352 -1.93262 
1.89453 0.598145 -1.89355 
1.92676 0.605469 -1.91602 
-2.89063 1.21582 -3.90625 
-2.85742 1.20996 -3.88672 
-2.83984 1.20996 -3.88672 
-2.82617 1.21191 -3.89258 
-2.80469 1.21094 -3.88867 
-2.78125 1.20898 -3.88281 
-2.75195 1.20313 -3.86719 
-2.71289 1.19434 -3.83789 
-2.67773 1.18652 -3.8125 
0.208008 1.18262 -3.79883 
0.225952 1.18262 -3.79883 
0.24231 1.1748 -3.77344 
0.257568 1.16309 -3.73633 
0.273926 1.1582 -3.7207 
0.289307 1.14941 -3.69141 
0.304688 1.14063 -3.66406 
0.320557 1.13574 -3.64844 
0.3396 1.1416 -3.66602 
0.35498 1.13574 -3.64844 
0.370361 1.12988 -3.63086 
0.385986 1.125 -3.61523 
0.401855 1.12109 -3.60352 
0.417969 1.11914 -3.5957 
0.43457 1.11816 -3.59375 
0.451904 1.11914 -3.5957 
0.469727 1.12109 -3.60156 
0.488525 1.125 -3.61328 
0.507813 1.12988 -3.63086 
0.525879 1.13184 -3.63672 
0.542969 1.13184 -3.63672 
0.554688 1.12012 -3.59961 
0.573242 1.12305 -3.60938 
0.591797 1.12695 -3.61914 
0.637695 1.14746 -3.6875 
0.651367 1.14063 -3.66406 
0.662598 1.13086 -3.63281 
0.677734 1.12695 -3.61914 
0.689941 1.11914 -3.5957 
0.699219 1.10645 -3.55664 
0.706055 1.0918 -3.50586 
0.711914 1.0752 -3.45313 
0.717773 1.05957 -3.4043 
0.724609 1.0459 -3.36133 
0.731934 1.03418 -3.32227 
0.739746 1.02344 -3.28711 
0.748535 1.01367 -3.25781 
0.757324 1.00488 -3.22852 
0.766113 0.99707 -3.20313 
0.775391 0.989258 -3.17773 
0.784668 0.982422 -3.1543 
0.79541 0.977051 -3.13867 
0.807129 0.973145 -3.12695 
0.820313 0.971191 -3.11914 
0.834961 0.971191 -3.11914 
0.849609 0.971191 -3.11914 
0.865234 0.972168 -3.12305 
0.880371 0.972656 -3.125 
0.895996 0.973145 -3.12695 
0.910156 0.972656 -3.125 
0.923828 0.971191 -3.11914 
0.935547 0.968262 -3.10938 
0.946289 0.964355 -3.09766 
0.955566 0.958984 -3.08008 
0.965332 0.954102 -3.06445 
0.974609 0.94873 -3.04883 
0.983398 0.943848 -3.03125 
0.993164 0.939453 -3.01758 
1.00195 0.935059 -3.00195 
1.0127 0.931152 -2.99023 
1.02148 0.926758 -2.97656 
1.03125 0.922852 -2.96289 
1.04004 0.918457 -2.94922 
1.04883 0.913574 -2.93555 
1.05859 0.910156 -2.92188 
1.06738 0.905273 -2.9082 
1.0752 0.900879 -2.89453 
1.08496 0.896973 -2.88086 
1.09375 0.893066 -2.86914 
1.10352 0.890625 -2.86133 
1.11523 0.888672 -2.85547 
1.12695 0.887695 -2.85156 
1.13867 0.88623 -2.8457 
1.15137 0.885742 -2.84375 
1.16406 0.884766 -2.8418 
1.1748 0.882813 -2.83594 
1.18555 0.881348 -2.83008 
1.19531 0.878418 -2.82227 
1.20508 0.875488 -2.8125 
1.21191 0.871094 -2.79688 
1.2168 0.865234 -2.7793 
1.2207 0.858887 -2.75781 
1.22266 0.851074 -2.73438 
1.22559 0.844238 -2.71094 
1.23047 0.838379 -2.69336 
1.23535 0.833008 -2.67578 
1.24219 0.829102 -2.66406 
1.25 0.826172 -2.6543 
1.25781 0.822754 -2.64258 
1.26465 0.819824 -2.63281 
1.27051 0.81543 -2.61914 
1.27344 0.80957 -2.59961 
1.27734 0.803711 -2.58203 
1.2793 0.797363 -2.56055 
1.28223 0.791504 -2.54297 
1.28613 0.787109 -2.52734 
1.29297 0.783691 -2.51758 
1.30273 0.782715 -2.51367 
1.31348 0.781738 -2.51172 
1.32715 0.782715 -2.51367 
1.33887 0.782715 -2.51367 
1.35059 0.782715 -2.51367 
1.36133 0.781738 -2.51172 
1.36914 0.779297 -2.50391 
1.37402 0.775391 -2.49023 
1.37598 0.770508 -2.47461 
1.37695 0.76416 -2.45313 
1.375 0.756836 -2.43164 
1.37402 0.75 -2.4082 
1.37402 0.743652 -2.38867 
1.37402 0.737793 -2.36914 
1.37598 0.732422 -2.35352 
1.37988 0.729004 -2.3418 
1.38574 0.726074 -2.33203 
1.39453 0.725098 -2.32813 
1.40527 0.725098 -2.32813 
1.41797 0.725586 -2.33008 
1.43164 0.727051 -2.33398 
1.44434 0.728027 -2.33789 
1.45996 0.72998 -2.3457 
1.47461 0.731934 -2.35156 
1.4873 0.732422 -2.35352 
1.49805 0.732422 -2.35352 
1.50684 0.731445 -2.34961 
1.51367 0.729492 -2.34375 
1.51953 0.727051 -2.33398 
1.52344 0.723633 -2.32422 
1.52637 0.719727 -2.3125 
1.5293 0.71582 -2.29883 
1.5332 0.712891 -2.28906 
1.53711 0.709473 -2.2793 
1.54395 0.70752 -2.27344 
1.55078 0.705566 -2.26758 
1.55859 0.70459 -2.26367 
1.56738 0.703613 -2.25977 
1.57715 0.703125 -2.25781 
1.58789 0.703125 -2.25781 
1.59668 0.702637 -2.25586 
1.60449 0.701172 -2.25195 
1.61426 0.700684 -2.25 
1.62109 0.699219 -2.24609 
1.62891 0.698242 -2.24219 
1.63574 0.696289 -2.23633 
1.64258 0.694824 -2.23242 
1.64844 0.692871 -2.22656 
1.65625 0.691895 -2.2207 
1.66406 0.69043 -2.2168 
1.6709 0.688965 -2.21289 
1.67871 0.687988 -2.20898 
1.68457 0.686035 -2.20313 
1.68945 0.684082 -2.19727 
1.69043 0.680176 -2.18555 
1.68945 0.675781 -2.16992 
1.6875 0.67041 -2.1543 
1.68164 0.664063 -2.13281 
1.6748 0.657715 -2.11328 
1.66895 0.651367 -2.0918 
1.66504 0.645996 -2.07617 
1.66211 0.641113 -2.05859 
1.66211 0.637207 -2.04688 
1.66309 0.634277 -2.03711 
1.66406 0.630859 -2.02539 
1.66895 0.628906 -2.01953 
1.67285 0.626953 -2.01367 
1.67871 0.625977 -2.00977 
1.68555 0.624512 -2.00586 
1.69434 0.624512 -2.00586 
1.70215 0.624023 -2.00391 
1.71191 0.624023 -2.00391 
1.72168 0.624023 -2.00391 
1.73047 0.624023 -2.00391 
1.73828 0.623047 -2.00195 
1.74609 0.622559 -2 
1.75391 0.62207 -1.99805 
1.75977 0.620605 -1.99414 
1.76563 0.619141 -1.99023 
1.77148 0.618164 -1.98535 
1.77539 0.616211 -1.97949 
1.7793 0.614258 -1.97363 
1.7832 0.612305 -1.9668 
1.78613 0.610352 -1.96094 
1.79199 0.608887 -1.95703 
1.79785 0.60791 -1.95313 
1.80469 0.606934 -1.95117 
1.81445 0.606934 -1.95117 
1.82129 0.606445 -1.94824 
1.83008 0.606445 -1.94824 
1.83984 0.606445 -1.94824 
1.84863 0.606445 -1.94824 
1.85645 0.605957 -1.94629 
2.00781 0.652832 -2.0957 
2.01953 0.652832 -2.0957 
2.02539 0.651367 -2.0918 
2.02539 0.647949 -2.08203 
2.02148 0.644531 -2.07031 
2.02148 0.641113 -2.05859 
1.91211 0.603516 -1.93848 
1.91797 0.602051 -1.93457 
1.91406 0.598145 -1.92188 
1.96094 0.609863 -1.95898 
1.81934 0.562988 -1.80859 
0.207397 1.16113 -3.78906 
0.226318 1.16602 -3.80469 
0.24231 1.15723 -3.77344 
0.257813 1.14648 -3.74023 
0.273682 1.13867 -3.71484 
0.289307 1.13086 -3.68945 
0.304688 1.12305 -3.66406 
0.320557 1.11816 -3.64844 
0.337891 1.11914 -3.65039 
0.354248 1.11621 -3.64063 
0.369385 1.10938 -3.61914 
0.384766 1.10449 -3.60352 
0.400146 1.09961 -3.58789 
0.416016 1.09668 -3.57813 
0.432129 1.09473 -3.57227 
0.448975 1.09473 -3.57227 
0.466553 1.09668 -3.57617 
0.484863 1.09961 -3.58594 
0.503906 1.10352 -3.60156 
0.522461 1.10742 -3.61133 
0.540039 1.1084 -3.61523 
0.560059 1.11426 -3.63672 
0.57959 1.11816 -3.64844 
0.599121 1.12305 -3.66211 
0.614746 1.11914 -3.65234 
0.629883 1.11621 -3.64258 
0.643555 1.10938 -3.61914 
0.65625 1.10254 -3.59766 
0.67041 1.09766 -3.58008 
0.682617 1.08984 -3.55664 
0.691895 1.0791 -3.51953 
0.700195 1.06641 -3.47852 
0.708008 1.05273 -3.43555 
0.715332 1.04004 -3.39258 
0.723633 1.0293 -3.35742 
0.731934 1.01855 -3.32227 
0.740234 1.00781 -3.28906 
0.748535 0.999023 -3.25781 
0.756836 0.989258 -3.22656 
0.765137 0.980469 -3.19727 
0.772949 0.971191 -3.16797 
0.78125 0.962891 -3.14063 
0.790527 0.956543 -3.11914 
0.801758 0.952148 -3.10547 
0.814941 0.950195 -3.09961 
0.82959 0.950195 -3.09961 
0.845215 0.95166 -3.10352 
0.861328 0.952637 -3.10742 
0.877441 0.95459 -3.11328 
0.894531 0.957031 -3.12305 
0.910645 0.958496 -3.12695 
0.925293 0.958496 -3.12695 
0.938965 0.957031 -3.12305 
0.951172 0.95459 -3.11328 
0.962402 0.951172 -3.10156 
0.972168 0.946289 -3.08789 
0.980957 0.940918 -3.06836 
0.990234 0.936035 -3.05273 
0.999023 0.930664 -3.03516 
1.00781 0.925781 -3.01953 
1.0166 0.920898 -3.00195 
1.02539 0.916504 -2.98828 
1.03418 0.911133 -2.97266 
1.04297 0.906738 -2.95703 
1.05176 0.902344 -2.94336 
1.06055 0.897949 -2.92969 
1.07031 0.894043 -2.91602 
1.0791 0.890625 -2.9043 
1.08887 0.886719 -2.89258 
1.09863 0.883301 -2.88086 
1.1084 0.880859 -2.87305 
1.12012 0.878906 -2.86719 
1.13086 0.876953 -2.86133 
1.14258 0.875977 -2.85742 
1.1543 0.874512 -2.85352 
1.16699 0.873535 -2.84961 
1.17676 0.871094 -2.83984 
1.18652 0.868164 -2.83203 
1.19629 0.865723 -2.82422 
1.20508 0.861816 -2.8125 
1.21289 0.858398 -2.79883 
1.21777 0.852539 -2.78125 
1.22168 0.846191 -2.75977 
1.22461 0.839355 -2.73828 
1.22754 0.83252 -2.71484 
1.23047 0.826172 -2.69531 
1.23633 0.821289 -2.67773 
1.24219 0.816895 -2.66406 
1.25 0.813477 -2.6543 
1.25684 0.80957 -2.64063 
1.2627 0.806152 -2.62891 
1.26758 0.800781 -2.61133 
1.27051 0.79541 -2.59375 
1.27344 0.789063 -2.57227 
1.27441 0.782715 -2.55273 
1.27734 0.776855 -2.5332 
1.28223 0.772461 -2.51953 
1.28809 0.768555 -2.50781 
1.29785 0.767578 -2.50391 
1.30859 0.76709 -2.50195 
1.32031 0.76709 -2.50195 
1.33301 0.767578 -2.50391 
1.34473 0.767578 -2.50391 
1.35449 0.766113 -2.5 
1.3623 0.763672 -2.49023 
1.36719 0.759766 -2.47852 
1.36914 0.754883 -2.46289 
1.37012 0.748535 -2.44141 
1.36914 0.742188 -2.42188 
1.36914 0.73584 -2.40039 
1.36914 0.729492 -2.38086 
1.37012 0.724609 -2.36328 
1.37305 0.720215 -2.34961 
1.37793 0.717285 -2.33789 
1.38574 0.715332 -2.33203 
1.39453 0.713867 -2.32813 
1.40527 0.713867 -2.32813 
1.41797 0.714355 -2.33008 
1.43164 0.71582 -2.33398 
1.44434 0.717285 -2.33789 
1.45996 0.71875 -2.3457 
1.47461 0.720703 -2.35156 
1.4873 0.72168 -2.35352 
1.5 0.722168 -2.35547 
1.50977 0.72168 -2.35352 
1.51758 0.720215 -2.34961 
1.52539 0.718262 -2.34375 
1.53027 0.71582 -2.33398 
1.53516 0.712891 -2.32422 
1.53809 0.708984 -2.3125 
1.54199 0.705566 -2.30273 
1.5459 0.702637 -2.29102 
1.55078 0.700195 -2.2832 
1.55664 0.697754 -2.27539 
1.56445 0.696289 -2.27148 
1.57227 0.694824 -2.26758 
1.58008 0.693848 -2.26367 
1.58887 0.693359 -2.25977 
1.59863 0.692383 -2.25781 
1.60645 0.691406 -2.25391 
1.61426 0.689941 -2.25 
1.62109 0.688477 -2.24609 
1.62891 0.6875 -2.24219 
1.63574 0.685547 -2.23633 
1.64258 0.684082 -2.23242 
1.64844 0.682617 -2.22656 
1.65625 0.681152 -2.2207 
1.66406 0.679688 -2.2168 
1.6709 0.678711 -2.21289 
1.67871 0.677246 -2.20898 
1.68457 0.675293 -2.20313 
1.68848 0.672852 -2.19531 
1.68945 0.668945 -2.18164 
1.68848 0.664551 -2.16797 
1.68262 0.658691 -2.14844 
1.67676 0.652344 -2.12695 
1.66895 0.64502 -2.10352 
1.66211 0.63916 -2.08398 
1.65723 0.633301 -2.06445 
1.65332 0.628418 -2.04883 
1.65332 0.624512 -2.03711 
1.65625 0.62207 -2.0293 
1.65918 0.619141 -2.01953 
1.66504 0.618164 -2.01563 
1.6709 0.616699 -2.01172 
1.67773 0.615723 -2.00781 
1.68555 0.614746 -2.00586 
1.69434 0.614746 -2.00586 
1.70215 0.614258 -2.00391 
1.71191 0.614258 -2.00391 
1.71973 0.61377 -2.00195 
1.72754 0.613281 -2 
1.73535 0.612305 -1.99805 
1.74316 0.611816 -1.99609 
1.75 0.611328 -1.99414 
1.75586 0.609863 -1.99023 
1.76172 0.608887 -1.98535 
1.76758 0.607422 -1.98145 
1.77148 0.605469 -1.97559 
1.77539 0.603516 -1.96875 
1.7793 0.601563 -1.96289 
1.78223 0.599609 -1.95703 
1.78809 0.598633 -1.95313 
1.79395 0.597168 -1.94824 
1.80273 0.597168 -1.94824 
1.8125 0.597168 -1.94824 
1.82129 0.597168 -1.94824 
1.83203 0.598145 -1.95117 
1.84375 0.598633 -1.95313 
1.85254 0.598633 -1.95313 
2.00391 0.644531 -2.10156 
2.02539 0.647949 -2.11328 
2.03711 0.648438 -2.11523 
2.04297 0.646973 -2.11133 
2.04297 0.644043 -2.09961 
2.04297 0.640625 -2.08984 
2.04102 0.637207 -2.07813 
2.04297 0.635254 -2.07227 
1.91406 0.591797 -1.92969 
2.06055 0.634277 -2.07031 
2.0918 0.640625 -2.08984 
1.8125 0.552734 -1.80273 
0.192139 1.15918 -3.8418 
0.208862 1.15137 -3.81445 
0.224854 1.14063 -3.7793 
0.24292 1.1416 -3.7832 
0.258789 1.13281 -3.75391 
0.275146 1.12695 -3.73438 
0.290527 1.11816 -3.70508 
0.306152 1.11133 -3.68359 
0.321533 1.10449 -3.66016 
0.338623 1.10352 -3.65625 
0.35376 1.09668 -3.63477 
0.369873 1.09375 -3.62305 
0.384766 1.08789 -3.60352 
0.399658 1.08203 -3.58398 
0.414795 1.07715 -3.56836 
0.43042 1.07422 -3.55859 
0.446777 1.07227 -3.55469 
0.463623 1.07227 -3.55469 
0.481201 1.07422 -3.56055 
0.499756 1.07813 -3.57227 
0.517578 1.08105 -3.58008 
0.535156 1.08203 -3.58398 
0.554688 1.08594 -3.59961 
0.572754 1.08887 -3.60742 
0.591797 1.0918 -3.61719 
0.606934 1.08887 -3.60742 
0.62207 1.08496 -3.5957 
0.635254 1.0791 -3.57422 
0.648438 1.07227 -3.55469 
0.661621 1.06738 -3.53516 
0.673828 1.05957 -3.50977 
0.68457 1.05078 -3.48242 
0.694824 1.04102 -3.44922 
0.703613 1.03027 -3.41406 
0.713379 1.02148 -3.38281 
0.722656 1.01172 -3.35156 
0.731934 1.00195 -3.32227 
0.740723 0.993164 -3.29102 
0.749023 0.983887 -3.25977 
0.757324 0.974609 -3.22852 
0.764648 0.964844 -3.19531 
0.771973 0.955078 -3.16406 
0.779785 0.946289 -3.13477 
0.788574 0.939453 -3.11133 
0.799316 0.93457 -3.0957 
0.812012 0.932617 -3.08984 
0.826172 0.932129 -3.08789 
0.841797 0.933105 -3.0918 
0.858398 0.935059 -3.09766 
0.875488 0.9375 -3.10547 
0.892578 0.939941 -3.11328 
0.909668 0.942383 -3.12305 
0.925293 0.943848 -3.12695 
0.94043 0.943848 -3.12695 
0.953613 0.942383 -3.12305 
0.964844 0.938965 -3.10938 
0.975098 0.93457 -3.0957 
0.983887 0.928711 -3.07617 
0.992188 0.92334 -3.05859 
1 0.91748 -3.03906 
1.00879 0.912598 -3.02344 
1.01758 0.907227 -3.00586 
1.02539 0.902344 -2.98828 
1.03418 0.896973 -2.97266 
1.04297 0.89209 -2.95508 
1.05176 0.887695 -2.94141 
1.06055 0.884277 -2.92969 
1.07031 0.880371 -2.91602 
1.08008 0.877441 -2.90625 
1.08984 0.874023 -2.89648 
1.10059 0.871582 -2.88867 
1.1123 0.869629 -2.88086 
1.12305 0.868164 -2.875 
1.13477 0.866211 -2.86914 
1.14648 0.864746 -2.86523 
1.15723 0.862793 -2.85938 
1.16797 0.861328 -2.85352 
1.17871 0.858887 -2.84375 
1.1875 0.855469 -2.83398 
1.19629 0.852539 -2.82422 
1.20508 0.849609 -2.81445 
1.21387 0.845703 -2.80078 
1.21973 0.84082 -2.78516 
1.22461 0.834961 -2.76563 
1.22754 0.828125 -2.74414 
1.23047 0.821289 -2.7207 
1.23242 0.814453 -2.69922 
1.23828 0.80957 -2.68164 
1.24316 0.804688 -2.66602 
1.24902 0.800293 -2.65039 
1.25488 0.795898 -2.63672 
1.25879 0.791016 -2.62109 
1.2627 0.785645 -2.60156 
1.26563 0.779785 -2.58398 
1.26758 0.773438 -2.5625 
1.26953 0.767578 -2.54297 
1.27246 0.761719 -2.52344 
1.27734 0.757324 -2.50977 
1.2832 0.754395 -2.5 
1.29297 0.753418 -2.49414 
1.30371 0.752441 -2.49219 
1.31738 0.753418 -2.49414 
1.3291 0.753418 -2.49414 
1.34082 0.753418 -2.49414 
1.35059 0.751953 -2.49023 
1.35742 0.749512 -2.48242 
1.36133 0.745117 -2.46875 
1.36426 0.740234 -2.45117 
1.36426 0.733887 -2.43164 
1.36328 0.727539 -2.41016 
1.36426 0.722168 -2.39258 
1.36621 0.717285 -2.375 
1.36816 0.712402 -2.35938 
1.37207 0.708496 -2.34766 
1.37793 0.706055 -2.33789 
1.38574 0.704102 -2.33203 
1.39453 0.703125 -2.32813 
1.4043 0.702148 -2.32617 
1.41602 0.703125 -2.32813 
1.42969 0.704102 -2.33203 
1.44336 0.705566 -2.33594 
1.45703 0.706543 -2.3418 
1.47168 0.708496 -2.34766 
1.48535 0.709961 -2.35156 
1.49805 0.710449 -2.35352 
1.51074 0.710938 -2.35547 
1.52051 0.710449 -2.35352 
1.5293 0.708984 -2.34961 
1.53613 0.707031 -2.34375 
1.54199 0.70459 -2.33398 
1.5459 0.70166 -2.32422 
1.54883 0.697754 -2.3125 
1.55273 0.694824 -2.30273 
1.55664 0.691895 -2.29102 
1.56152 0.689453 -2.2832 
1.56836 0.6875 -2.27734 
1.5752 0.685547 -2.27148 
1.58301 0.684082 -2.26758 
1.59082 0.683105 -2.26367 
1.59961 0.682617 -2.25977 
1.60742 0.681152 -2.25586 
1.61523 0.680176 -2.25195 
1.62109 0.678223 -2.24609 
1.62891 0.676758 -2.24219 
1.63574 0.674805 -2.23633 
1.64258 0.673828 -2.23242 
1.64844 0.671875 -2.22656 
1.65625 0.67041 -2.2207 
1.66406 0.669434 -2.2168 
1.6709 0.667969 -2.21289 
1.67871 0.666992 -2.20898 
1.68457 0.665039 -2.20313 
1.68652 0.662109 -2.19336 
1.6875 0.658203 -2.17969 
1.68555 0.65332 -2.16406 
1.67969 0.646973 -2.14258 
1.66992 0.639648 -2.11914 
1.66211 0.632813 -2.0957 
1.6543 0.625977 -2.07422 
1.64844 0.620605 -2.05469 
1.64746 0.616211 -2.04102 
1.64844 0.612793 -2.03125 
1.65137 0.610352 -2.02148 
1.65723 0.609375 -2.01758 
1.66309 0.60791 -2.01367 
1.66992 0.606934 -2.00977 
1.67871 0.606934 -2.00977 
1.68652 0.605957 -2.00781 
1.69434 0.605469 -2.00586 
1.7041 0.605469 -2.00586 
1.71191 0.60498 -2.00391 
1.71973 0.604004 -2.00195 
1.72754 0.603516 -2 
1.7334 0.602539 -1.99609 
1.74121 0.601563 -1.99414 
1.74707 0.600586 -1.99023 
1.75293 0.599121 -1.98535 
1.75781 0.598145 -1.98145 
1.76367 0.59668 -1.97754 
1.76758 0.594727 -1.97168 
1.77148 0.593262 -1.96484 
1.77539 0.591309 -1.95898 
1.7793 0.589355 -1.95313 
1.78418 0.587891 -1.94824 
1.79199 0.587402 -1.94629 
1.80078 0.587402 -1.94629 
1.81055 0.587402 -1.94629 
1.82324 0.588867 -1.95117 
1.83398 0.589355 -1.95313 
1.84766 0.590332 -1.95703 
1.8584 0.591309 -1.95898 
2.01563 0.638184 -2.11523 
2.04102 0.642578 -2.12891 
2.05273 0.643555 -2.13086 
2.05859 0.64209 -2.12695 
2.05859 0.63916 -2.11719 
2.05859 0.635742 -2.10742 
2.05859 0.632813 -2.0957 
2.06055 0.630371 -2.08789 
2.07031 0.630371 -2.08789 
2.08203 0.630859 -2.08984 
2.10547 0.635254 -2.10352 
2.14258 0.643555 -2.13086 
0.193359 1.14844 -3.86719 
0.210083 1.13965 -3.83789 
0.227051 1.13379 -3.81641 
0.244263 1.12988 -3.80469 
0.260498 1.12305 -3.7793 
0.276611 1.11523 -3.75586 
0.292236 1.10742 -3.72852 
0.308105 1.10059 -3.70508 
0.323486 1.09375 -3.68359 
0.340576 1.09277 -3.67773 
0.35498 1.08398 -3.64844 
0.369629 1.07617 -3.62109 
0.384277 1.06934 -3.59961 
0.39917 1.06348 -3.57813 
0.413818 1.05762 -3.56055 
0.430664 1.05762 -3.56055 
0.446289 1.05469 -3.54883 
0.462402 1.05371 -3.54492 
0.479004 1.05273 -3.54297 
0.496582 1.05469 -3.54883 
0.513672 1.05469 -3.55273 
0.530273 1.05469 -3.55273 
0.54834 1.05664 -3.55859 
0.566406 1.05957 -3.56836 
0.583008 1.05957 -3.56641 
0.598145 1.05566 -3.55469 
0.612793 1.05176 -3.54102 
0.625977 1.04688 -3.52344 
0.639648 1.04199 -3.50586 
0.652832 1.03613 -3.48828 
0.666016 1.03027 -3.46875 
0.677734 1.02441 -3.44727 
0.688965 1.0166 -3.42188 
0.700195 1.00977 -3.39844 
0.711426 1.00195 -3.37305 
0.721191 0.994141 -3.3457 
0.731934 0.986816 -3.32227 
0.741211 0.978516 -3.29297 
0.75 0.969727 -3.26367 
0.758301 0.960449 -3.23242 
0.765625 0.950684 -3.20117 
0.772949 0.940918 -3.16797 
0.780273 0.932129 -3.13672 
0.788574 0.924805 -3.11133 
0.798828 0.918945 -3.09375 
0.811035 0.916504 -3.08594 
0.824707 0.915527 -3.08008 
0.839844 0.916016 -3.08398 
0.855469 0.91748 -3.08789 
0.872559 0.919922 -3.0957 
0.890137 0.922852 -3.10547 
0.907227 0.925293 -3.11328 
0.923828 0.927246 -3.11914 
0.938477 0.927246 -3.11914 
0.952148 0.925781 -3.11523 
0.963379 0.922852 -3.10547 
0.973145 0.917969 -3.08984 
0.981445 0.912598 -3.07031 
0.990234 0.906738 -3.05273 
0.998047 0.900879 -3.03125 
1.00586 0.895508 -3.01367 
1.01367 0.889648 -2.99414 
1.02246 0.884766 -2.97852 
1.03027 0.879883 -2.96094 
1.04004 0.875977 -2.94727 
1.04883 0.87207 -2.93555 
1.05957 0.869141 -2.92383 
1.06934 0.866211 -2.91406 
1.0791 0.862793 -2.9043 
1.09082 0.861328 -2.89844 
1.10156 0.858887 -2.89063 
1.1123 0.856934 -2.88281 
1.125 0.855469 -2.87891 
1.13672 0.854492 -2.875 
1.14746 0.852539 -2.86914 
1.15918 0.850586 -2.86328 
1.16895 0.848145 -2.85547 
1.17969 0.845703 -2.8457 
1.18848 0.842773 -2.83594 
1.19727 0.839844 -2.82617 
1.20605 0.836426 -2.81641 
1.21484 0.833008 -2.80273 
1.22168 0.828613 -2.78906 
1.22754 0.82373 -2.77344 
1.23047 0.816895 -2.75 
1.2334 0.810547 -2.72656 
1.23535 0.803711 -2.70508 
1.24023 0.79834 -2.68555 
1.24414 0.79248 -2.66797 
1.24805 0.787109 -2.64844 
1.25195 0.781738 -2.63086 
1.25488 0.776367 -2.61133 
1.25781 0.77002 -2.5918 
1.25977 0.76416 -2.57031 
1.26172 0.757813 -2.55078 
1.26367 0.751953 -2.5293 
1.26758 0.74707 -2.51367 
1.27246 0.743164 -2.50195 
1.28027 0.740723 -2.49219 
1.29102 0.740234 -2.49023 
1.30273 0.740234 -2.49023 
1.31445 0.740234 -2.49023 
1.32813 0.740723 -2.49219 
1.33789 0.740234 -2.49023 
1.34668 0.738281 -2.48438 
1.35254 0.735352 -2.47461 
1.35645 0.730957 -2.46094 
1.35938 0.726074 -2.44336 
1.35938 0.720215 -2.42383 
1.36035 0.714355 -2.4043 
1.3623 0.709473 -2.38867 
1.36426 0.70459 -2.37109 
1.36816 0.701172 -2.35938 
1.37207 0.697266 -2.34766 
1.37793 0.694824 -2.33789 
1.38574 0.692871 -2.33203 
1.39355 0.691406 -2.32617 
1.40332 0.69043 -2.32422 
1.41406 0.69043 -2.32422 
1.42578 0.691406 -2.32617 
1.43945 0.692383 -2.33008 
1.4541 0.694336 -2.33594 
1.46777 0.695313 -2.3418 
1.4834 0.697266 -2.34766 
1.49707 0.69873 -2.35156 
1.50977 0.699219 -2.35352 
1.52051 0.699219 -2.35352 
1.53125 0.699219 -2.35352 
1.54004 0.697754 -2.34961 
1.5459 0.695313 -2.3418 
1.55176 0.692871 -2.33203 
1.55566 0.689941 -2.32227 
1.55859 0.686523 -2.31055 
1.5625 0.683105 -2.29883 
1.56641 0.680176 -2.28906 
1.57227 0.678223 -2.2832 
1.5791 0.676758 -2.27734 
1.58594 0.674805 -2.27148 
1.59375 0.67334 -2.26758 
1.60156 0.672363 -2.26367 
1.60938 0.670898 -2.25781 
1.61719 0.669922 -2.25391 
1.62305 0.667969 -2.24805 
1.63086 0.666992 -2.24414 
1.63672 0.665039 -2.23828 
1.64258 0.663086 -2.23242 
1.64844 0.661133 -2.22656 
1.65625 0.660156 -2.2207 
1.66406 0.658691 -2.2168 
1.6709 0.657715 -2.21289 
1.67871 0.65625 -2.20898 
1.68457 0.654785 -2.20313 
1.68652 0.651367 -2.19336 
1.6875 0.647949 -2.17969 
1.68359 0.642578 -2.16211 
1.67578 0.635742 -2.13867 
1.66797 0.628906 -2.11719 
1.65918 0.621582 -2.0918 
1.65039 0.614746 -2.07031 
1.64551 0.609375 -2.05078 
1.64355 0.60498 -2.03711 
1.64453 0.602051 -2.02539 
1.64941 0.600098 -2.01953 
1.65723 0.599609 -2.01758 
1.66309 0.598633 -2.01367 
1.67285 0.598633 -2.01367 
1.68066 0.597656 -2.01172 
1.69043 0.597656 -2.01172 
1.7002 0.597656 -2.01172 
1.70801 0.597168 -2.00977 
1.71582 0.59668 -2.00781 
1.72168 0.595215 -2.00391 
1.72754 0.594238 -2 
1.7334 0.592773 -1.99609 
1.73926 0.591797 -1.99219 
1.74512 0.590332 -1.9873 
1.75098 0.589355 -1.9834 
1.75488 0.587402 -1.97754 
1.76074 0.586426 -1.97363 
1.76367 0.584473 -1.9668 
1.76758 0.58252 -1.96094 
1.77148 0.580566 -1.95508 
1.77539 0.579102 -1.94824 
1.78223 0.578125 -1.94629 
1.79004 0.577637 -1.94434 
1.79883 0.577637 -1.94434 
1.8125 0.579102 -1.94824 
1.8252 0.580078 -1.95313 
1.83789 0.581543 -1.95703 
1.85156 0.58252 -1.96094 
1.86426 0.583984 -1.96484 
2.02734 0.631836 -2.12695 
2.05273 0.63623 -2.14063 
2.06641 0.637695 -2.14648 
2.07227 0.63623 -2.14063 
2.07227 0.633301 -2.13086 
2.07031 0.629395 -2.11914 
2.07031 0.626465 -2.10938 
2.07422 0.624512 -2.10156 
2.08203 0.624023 -2.09961 
2.09375 0.624512 -2.10156 
2.11719 0.628418 -2.11523 
2.14844 0.635254 -2.13672 
-0.192139 1.13867 -3.89453 
-0.173462 1.1377 -3.89063 
-0.155029 1.13672 -3.88867 
-0.136719 1.1377 -3.89063 
-0.117798 1.13281 -3.875 
-0.0997925 1.13672 -3.88672 
0.175293 1.13184 -3.87109 
0.193115 1.12891 -3.85938 
0.210449 1.12402 -3.84375 
0.227661 1.11914 -3.82813 
0.245361 1.11719 -3.82031 
0.261963 1.11133 -3.80078 
0.278076 1.10352 -3.77344 
0.293945 1.09668 -3.75195 
0.311035 1.09375 -3.74219 
0.32666 1.08691 -3.71875 
0.342285 1.08105 -3.69727 
0.357178 1.07227 -3.66992 
0.371826 1.06543 -3.64453 
0.386475 1.05859 -3.61914 
0.400635 1.05078 -3.59375 
0.415283 1.04395 -3.57227 
0.431885 1.04395 -3.57031 
0.447021 1.03906 -3.55664 
0.462402 1.03613 -3.54492 
0.479004 1.03613 -3.54297 
0.494873 1.03418 -3.53711 
0.510254 1.03125 -3.5293 
0.525879 1.03027 -3.52344 
0.543945 1.03125 -3.5293 
0.55957 1.03027 -3.52539 
0.575195 1.02832 -3.51758 
0.589844 1.02539 -3.50586 
0.604004 1.02051 -3.49219 
0.618164 1.0166 -3.47852 
0.631836 1.0127 -3.46289 
0.645996 1.00879 -3.45117 
0.659668 1.00488 -3.4375 
0.672852 1 -3.41992 
0.685059 0.994629 -3.40234 
0.697266 0.989258 -3.38281 
0.709473 0.983887 -3.36523 
0.720703 0.977051 -3.3418 
0.731445 0.970703 -3.32031 
0.741699 0.963379 -3.29492 
0.750977 0.955566 -3.26758 
0.759766 0.947266 -3.24023 
0.76709 0.9375 -3.20703 
0.774902 0.928711 -3.17578 
0.782227 0.919434 -3.14453 
0.790039 0.911621 -3.11719 
0.800293 0.90625 -3.09961 
0.811523 0.902832 -3.08789 
0.824707 0.900879 -3.08008 
0.838379 0.900391 -3.07813 
0.853027 0.900391 -3.07813 
0.869629 0.901855 -3.08594 
0.885742 0.903809 -3.0918 
0.902832 0.90625 -3.09961 
0.918945 0.907715 -3.10352 
0.934082 0.908203 -3.10547 
0.946777 0.90625 -3.09961 
0.958496 0.90332 -3.08984 
0.967773 0.898438 -3.07227 
0.975586 0.892578 -3.05273 
0.984375 0.887207 -3.0332 
0.991699 0.880859 -3.01367 
1 0.875488 -2.99414 
1.00781 0.870605 -2.97852 
1.0166 0.866211 -2.96094 
1.02637 0.862305 -2.94922 
1.03613 0.858887 -2.9375 
1.0459 0.855957 -2.92773 
1.05664 0.853027 -2.91602 
1.06836 0.851074 -2.91016 
1.0791 0.848633 -2.90234 
1.08984 0.84668 -2.89648 
1.10156 0.845215 -2.89063 
1.11328 0.84375 -2.88477 
1.12598 0.842773 -2.88086 
1.1377 0.841309 -2.87695 
1.14844 0.839355 -2.87109 
1.16016 0.837891 -2.86523 
1.16992 0.835449 -2.85742 
1.17969 0.83252 -2.8457 
1.18848 0.82959 -2.83594 
1.19727 0.826172 -2.82617 
1.20703 0.82373 -2.81836 
1.21582 0.820801 -2.80664 
1.22363 0.817383 -2.79492 
1.23047 0.8125 -2.7793 
1.23438 0.806641 -2.75781 
1.23633 0.799805 -2.73633 
1.23926 0.793457 -2.71289 
1.24219 0.786621 -2.68945 
1.24512 0.780762 -2.66992 
1.24805 0.774414 -2.64844 
1.25098 0.768555 -2.62891 
1.25195 0.762207 -2.60547 
1.25391 0.755371 -2.58398 
1.25586 0.749512 -2.5625 
1.25781 0.743164 -2.54297 
1.26074 0.737793 -2.52344 
1.26367 0.733398 -2.50781 
1.27051 0.72998 -2.49805 
1.28027 0.729004 -2.49219 
1.29102 0.728516 -2.49023 
1.30371 0.729004 -2.49219 
1.31738 0.729492 -2.49414 
1.3291 0.729492 -2.49414 
1.33789 0.728516 -2.49023 
1.34668 0.726563 -2.48438 
1.35156 0.723145 -2.47266 
1.35449 0.718262 -2.45508 
1.35547 0.712891 -2.4375 
1.3584 0.708008 -2.42188 
1.35938 0.702637 -2.40234 
1.36133 0.697754 -2.38672 
1.36523 0.693848 -2.37305 
1.36914 0.69043 -2.36133 
1.37305 0.687012 -2.34961 
1.37988 0.68457 -2.3418 
1.38574 0.682129 -2.33203 
1.39355 0.680176 -2.32617 
1.40137 0.679199 -2.32227 
1.41309 0.679199 -2.32227 
1.42383 0.679199 -2.32227 
1.4375 0.680176 -2.32617 
1.45117 0.681641 -2.33008 
1.46387 0.682617 -2.33398 
1.47949 0.68457 -2.3418 
1.49316 0.685547 -2.3457 
1.50781 0.6875 -2.35156 
1.52051 0.687988 -2.35352 
1.53125 0.687988 -2.35352 
1.54102 0.6875 -2.35156 
1.54883 0.685547 -2.3457 
1.55371 0.683105 -2.33594 
1.55859 0.680176 -2.32617 
1.56055 0.676758 -2.31445 
1.56543 0.673828 -2.30469 
1.56836 0.67041 -2.29297 
1.5752 0.668945 -2.28711 
1.58008 0.666504 -2.2793 
1.58887 0.665039 -2.27539 
1.59668 0.664063 -2.27148 
1.60449 0.662598 -2.26758 
1.6123 0.661621 -2.26367 
1.62012 0.660645 -2.25781 
1.62598 0.658691 -2.25195 
1.63184 0.656738 -2.24609 
1.63867 0.654785 -2.24023 
1.64453 0.65332 -2.23438 
1.65039 0.651367 -2.22852 
1.6582 0.650391 -2.22461 
1.66504 0.648926 -2.21875 
1.67285 0.647949 -2.21484 
1.67969 0.646484 -2.21094 
1.68555 0.64502 -2.20508 
1.68848 0.641602 -2.19531 
1.68945 0.638184 -2.18164 
1.68555 0.632813 -2.16406 
1.67969 0.626953 -2.14258 
1.66992 0.619629 -2.11914 
1.66016 0.612305 -2.09375 
1.65234 0.605957 -2.07227 
1.64746 0.600098 -2.05273 
1.64746 0.59668 -2.04102 
1.64844 0.59375 -2.03125 
1.65332 0.591797 -2.02344 
1.66113 0.591309 -2.02148 
1.66895 0.59082 -2.01953 
1.67773 0.59082 -2.01953 
1.6875 0.59082 -2.01953 
1.69531 0.590332 -2.01758 
1.70508 0.590332 -2.01758 
1.71289 0.589355 -2.01563 
1.7207 0.588867 -2.01367 
1.72656 0.587891 -2.00977 
1.73047 0.585938 -2.00391 
1.73535 0.583984 -1.99805 
1.73926 0.58252 -1.99219 
1.74316 0.580566 -1.98535 
1.74902 0.579102 -1.98145 
1.75293 0.577637 -1.97559 
1.75684 0.575684 -1.96875 
1.76074 0.57373 -1.96289 
1.76367 0.572266 -1.95703 
1.76953 0.570801 -1.95313 
1.77344 0.568848 -1.94629 
1.78027 0.568359 -1.94434 
1.79004 0.568359 -1.94434 
1.80078 0.568848 -1.94629 
1.8125 0.569824 -1.94824 
1.82715 0.571289 -1.95508 
1.83984 0.572754 -1.95898 
1.85547 0.574219 -1.96484 
1.86816 0.575684 -1.96875 
2.03125 0.623047 -2.13086 
2.05664 0.627441 -2.14648 
2.07227 0.629395 -2.15234 
2.07813 0.62793 -2.14844 
2.07813 0.625 -2.13672 
2.07617 0.621582 -2.125 
2.07617 0.618164 -2.11523 
2.07813 0.615723 -2.10742 
2.08594 0.615234 -2.10352 
2.09766 0.615723 -2.10742 
2.11719 0.618164 -2.11523 
2.15625 0.626953 -2.14258 
-0.210327 1.11914 -3.89063 
-0.191772 1.11816 -3.88867 
-0.173096 1.11719 -3.88281 
-0.154663 1.11621 -3.88086 
-0.136353 1.11621 -3.88086 
-0.117493 1.11133 -3.86523 
-0.0994873 1.11426 -3.875 
-0.0813599 1.11719 -3.88477 
0.175049 1.1123 -3.86719 
0.192993 1.10938 -3.85742 
0.210449 1.10547 -3.84375 
0.228638 1.10547 -3.84375 
0.246338 1.10352 -3.83594 
0.263184 1.09863 -3.81836 
0.279541 1.0918 -3.79688 
0.295898 1.08594 -3.77539 
0.312256 1.08008 -3.75586 
0.327637 1.07324 -3.73047 
0.343994 1.06836 -3.71484 
0.358643 1.05957 -3.68555 
0.373535 1.05273 -3.66016 
0.388184 1.0459 -3.63672 
0.402832 1.03906 -3.61328 
0.417236 1.03223 -3.58789 
0.431885 1.02637 -3.57031 
0.448242 1.02539 -3.56641 
0.464111 1.02344 -3.55859 
0.479248 1.01953 -3.54492 
0.493652 1.01465 -3.5293 
0.508789 1.01172 -3.51758 
0.524414 1.01074 -3.51367 
0.539551 1.00684 -3.50195 
0.554688 1.00391 -3.49219 
0.569336 1.00098 -3.48242 
0.583984 0.998047 -3.46875 
0.598145 0.994629 -3.45703 
0.612793 0.991699 -3.44727 
0.626953 0.98877 -3.4375 
0.641602 0.98584 -3.42578 
0.655762 0.98291 -3.41602 
0.669434 0.979004 -3.4043 
0.682617 0.975098 -3.38867 
0.695801 0.970703 -3.375 
0.708008 0.966309 -3.35938 
0.720215 0.960938 -3.33984 
0.731445 0.955078 -3.32031 
0.742188 0.948242 -3.29688 
0.751953 0.941406 -3.27148 
0.76123 0.933594 -3.24609 
0.769043 0.924805 -3.21484 
0.777344 0.916504 -3.18555 
0.784668 0.907715 -3.1543 
0.792969 0.899902 -3.12891 
0.802246 0.894043 -3.10742 
0.813477 0.889648 -3.09375 
0.824707 0.88623 -3.08008 
0.837402 0.884766 -3.07422 
0.851074 0.883301 -3.07031 
0.865234 0.883301 -3.07031 
0.880371 0.883789 -3.07227 
0.896973 0.885742 -3.07813 
0.912598 0.886719 -3.08398 
0.926758 0.88623 -3.08008 
0.939453 0.884766 -3.07422 
0.950684 0.881348 -3.06445 
0.959961 0.876953 -3.04883 
0.967773 0.871094 -3.02734 
0.976074 0.865723 -3.00977 
0.984375 0.860352 -2.99023 
0.993164 0.855469 -2.97461 
1.00195 0.851563 -2.95898 
1.01172 0.847656 -2.94727 
1.02246 0.844727 -2.9375 
1.03223 0.841797 -2.92773 
1.04395 0.840332 -2.91992 
1.05469 0.837891 -2.91211 
1.06641 0.835938 -2.90625 
1.07813 0.834473 -2.90039 
1.08887 0.83252 -2.89453 
1.10156 0.831543 -2.89063 
1.11328 0.830078 -2.88477 
1.12598 0.829102 -2.88086 
1.1377 0.827637 -2.87695 
1.14844 0.826172 -2.87109 
1.16016 0.824219 -2.86523 
1.16895 0.821289 -2.85547 
1.17969 0.818848 -2.8457 
1.18848 0.815918 -2.83594 
1.19824 0.813477 -2.82813 
1.20801 0.811035 -2.82031 
1.2168 0.808105 -2.81055 
1.22559 0.805176 -2.79883 
1.23242 0.80127 -2.78516 
1.2373 0.795898 -2.76563 
1.24023 0.789551 -2.74414 
1.24316 0.782715 -2.7207 
1.24609 0.776367 -2.69922 
1.24805 0.77002 -2.67578 
1.25 0.763184 -2.6543 
1.25195 0.756836 -2.63086 
1.25195 0.749512 -2.60547 
1.25391 0.743164 -2.58398 
1.25488 0.736816 -2.56055 
1.25684 0.730957 -2.54102 
1.26074 0.726074 -2.52344 
1.26563 0.72168 -2.50977 
1.27246 0.719727 -2.50195 
1.28223 0.718262 -2.49805 
1.29395 0.718262 -2.49805 
1.30762 0.71875 -2.5 
1.32031 0.719727 -2.50195 
1.33203 0.719727 -2.50195 
1.3418 0.718262 -2.49805 
1.34766 0.715332 -2.48633 
1.35254 0.711914 -2.47461 
1.35547 0.707031 -2.45898 
1.35742 0.70166 -2.43945 
1.3584 0.696289 -2.42188 
1.36035 0.691895 -2.4043 
1.36328 0.6875 -2.39063 
1.36719 0.684082 -2.37695 
1.37207 0.680664 -2.36523 
1.37695 0.677734 -2.35547 
1.38184 0.674805 -2.3457 
1.38672 0.671387 -2.33398 
1.39453 0.669922 -2.32813 
1.40137 0.667969 -2.32227 
1.41113 0.66748 -2.32031 
1.42285 0.66748 -2.32031 
1.43457 0.667969 -2.32227 
1.44824 0.669434 -2.32617 
1.46289 0.670898 -2.33203 
1.47656 0.672363 -2.33594 
1.49121 0.673828 -2.34375 
1.50586 0.675293 -2.34766 
1.51953 0.67627 -2.35156 
1.53027 0.67627 -2.35156 
1.54004 0.675781 -2.34961 
1.54883 0.674805 -2.3457 
1.55371 0.672363 -2.33594 
1.55859 0.669434 -2.32617 
1.5625 0.666504 -2.31641 
1.56641 0.663574 -2.30664 
1.57129 0.661133 -2.29688 
1.57715 0.658691 -2.28906 
1.58301 0.656738 -2.2832 
1.5918 0.655762 -2.2793 
1.59961 0.654297 -2.27539 
1.60742 0.65332 -2.27148 
1.61523 0.652344 -2.26758 
1.62305 0.650879 -2.26367 
1.62891 0.648926 -2.25586 
1.63477 0.647461 -2.25 
1.6416 0.645508 -2.24414 
1.64746 0.644043 -2.23828 
1.65332 0.64209 -2.23242 
1.65918 0.640137 -2.22656 
1.66699 0.63916 -2.2207 
1.67578 0.638672 -2.21875 
1.68359 0.637207 -2.21484 
1.68848 0.635742 -2.20898 
1.69336 0.633301 -2.20117 
1.69434 0.629395 -2.18945 
1.69141 0.625 -2.17188 
1.68359 0.618164 -2.15039 
1.6748 0.611328 -2.125 
1.66699 0.60498 -2.10156 
1.65918 0.598145 -2.08008 
1.6543 0.592773 -2.06055 
1.65332 0.589355 -2.04883 
1.65527 0.586426 -2.03906 
1.66113 0.585449 -2.03516 
1.66797 0.583984 -2.03125 
1.67676 0.583984 -2.03125 
1.68457 0.583496 -2.0293 
1.69434 0.583496 -2.0293 
1.70215 0.583008 -2.02539 
1.71191 0.583008 -2.02539 
1.71777 0.581543 -2.02148 
1.72559 0.581055 -2.01953 
1.73047 0.57959 -2.01367 
1.73438 0.577637 -2.00781 
1.7373 0.575195 -2 
1.74121 0.573242 -1.99414 
1.74316 0.571289 -1.98535 
1.74707 0.569336 -1.97949 
1.75098 0.567383 -1.97363 
1.75488 0.565918 -1.9668 
1.75879 0.563965 -1.96094 
1.7627 0.562012 -1.95508 
1.76758 0.561035 -1.95117 
1.77344 0.560059 -1.94629 
1.78027 0.559082 -1.94434 
1.79004 0.559082 -1.94434 
1.80078 0.560059 -1.94629 
1.81445 0.561035 -1.95117 
1.82715 0.562012 -1.95508 
1.8418 0.563965 -1.96094 
1.85547 0.564941 -1.96484 
1.87012 0.566895 -1.97168 
2.02539 0.611328 -2.125 
2.05078 0.615234 -2.13867 
2.06641 0.617188 -2.14648 
2.07227 0.616211 -2.14063 
2.07227 0.613281 -2.13086 
2.07031 0.609375 -2.11914 
2.06836 0.605957 -2.10742 
2.07227 0.604004 -2.09961 
2.07813 0.603027 -2.0957 
2.08789 0.603027 -2.0957 
2.10352 0.60498 -2.10156 
2.1582 0.617188 -2.14648 
-0.210449 1.10156 -3.89258 
-0.191772 1.09961 -3.88672 
-0.173096 1.09766 -3.88086 
-0.154541 1.09668 -3.87695 
-0.135376 1.08984 -3.85352 
-0.117249 1.09082 -3.85547 
-0.0993042 1.09473 -3.86914 
0.175293 1.09473 -3.87109 
0.192749 1.08984 -3.85352 
0.210693 1.08887 -3.84766 
0.229248 1.08984 -3.85352 
0.246582 1.08594 -3.83984 
0.263672 1.08203 -3.82617 
0.27832 1.06836 -3.77734 
0.293945 1.06152 -3.75195 
0.309814 1.05371 -3.72656 
0.324707 1.0459 -3.69531 
0.344971 1.05371 -3.72656 
0.360352 1.04688 -3.70117 
0.375 1.04004 -3.67578 
0.389893 1.03223 -3.65039 
0.405029 1.02734 -3.63281 
0.419922 1.02148 -3.61133 
0.43457 1.0166 -3.59375 
0.449463 1.01074 -3.57422 
0.465332 1.00977 -3.56836 
0.479736 1.00391 -3.54883 
0.494141 0.999023 -3.53125 
0.509277 0.996582 -3.52344 
0.523438 0.991699 -3.50391 
0.537598 0.986816 -3.48828 
0.551758 0.98291 -3.47461 
0.565918 0.979492 -3.46094 
0.580566 0.976074 -3.44922 
0.595215 0.973633 -3.44141 
0.609863 0.971191 -3.43164 
0.625 0.96875 -3.42383 
0.639648 0.966309 -3.41602 
0.654297 0.964355 -3.4082 
0.667969 0.961426 -3.39844 
0.681641 0.958008 -3.38477 
0.694824 0.953613 -3.37109 
0.70752 0.949707 -3.35742 
0.719727 0.944336 -3.33789 
0.731445 0.938965 -3.32031 
0.742188 0.933594 -3.29883 
0.75293 0.926758 -3.27539 
0.762695 0.919922 -3.25195 
0.770996 0.912109 -3.22266 
0.779297 0.903809 -3.19336 
0.787598 0.895996 -3.16797 
0.795898 0.888672 -3.14063 
0.805176 0.882324 -3.11719 
0.814941 0.876953 -3.09961 
0.825684 0.873047 -3.08594 
0.836914 0.869629 -3.07227 
0.848633 0.866699 -3.0625 
0.861816 0.865234 -3.05859 
0.875977 0.864746 -3.05664 
0.891113 0.865234 -3.05859 
0.905273 0.865234 -3.05859 
0.919434 0.864746 -3.05664 
0.931641 0.862793 -3.05078 
0.942383 0.859375 -3.03711 
0.95166 0.85498 -3.02148 
0.959961 0.849609 -3.00195 
0.968262 0.844238 -2.98438 
0.977051 0.839844 -2.96875 
0.986816 0.836426 -2.95508 
0.996582 0.83252 -2.94336 
1.00781 0.830566 -2.93555 
1.01953 0.828613 -2.92969 
1.03125 0.827148 -2.92188 
1.04297 0.825195 -2.91602 
1.05469 0.824219 -2.91211 
1.06641 0.822266 -2.90625 
1.0791 0.821289 -2.90234 
1.08984 0.819336 -2.89648 
1.10156 0.817871 -2.89063 
1.11328 0.816406 -2.88477 
1.12598 0.81543 -2.88086 
1.13672 0.813477 -2.875 
1.14844 0.8125 -2.87109 
1.15918 0.810059 -2.86328 
1.16895 0.807617 -2.85547 
1.17871 0.804688 -2.84375 
1.1875 0.801758 -2.83398 
1.19727 0.799805 -2.82617 
1.20801 0.797852 -2.82031 
1.21777 0.79541 -2.8125 
1.22656 0.79248 -2.80078 
1.2334 0.788574 -2.78711 
1.23926 0.783691 -2.77148 
1.24316 0.777832 -2.75 
1.24707 0.772461 -2.72852 
1.24902 0.765625 -2.70703 
1.25195 0.759277 -2.68359 
1.25293 0.752441 -2.66016 
1.25488 0.746094 -2.63672 
1.25586 0.739746 -2.61523 
1.25684 0.73291 -2.58984 
1.25781 0.726074 -2.56641 
1.26074 0.721191 -2.54883 
1.26465 0.716309 -2.53125 
1.27051 0.712891 -2.51953 
1.27832 0.710449 -2.51172 
