ply
format ascii 1.0
comment pointcloud saved from Realsense Viewer
element vertex 1810
property float32 x
property float32 y
property float32 z
end_header
-3.06641 1.77734 -3.30078 
-3.04883 1.77539 -3.29688 
-3.02344 1.76953 -3.28711 
-3.00781 1.76953 -3.28711 
-2.98633 1.7666 -3.28125 
-2.97266 1.76758 -3.2832 
-2.95703 1.76758 -3.2832 
-2.95117 1.77246 -3.29297 
-2.93945 1.77539 -3.29688 
-2.91992 1.77246 -3.29297 
-2.89844 1.76953 -3.28711 
-2.87305 1.76367 -3.27539 
-2.85352 1.76074 -3.26953 
-2.8457 1.7666 -3.28125 
-2.83594 1.76953 -3.28711 
-2.81445 1.7666 -3.28125 
-2.83008 1.78516 -3.31445 
-2.83789 1.80078 -3.34375 
-2.83594 1.80957 -3.36133 
-2.83398 1.81836 -3.37695 
-2.83594 1.8291 -3.39844 
-2.83008 1.83594 -3.41016 
-2.82031 1.84082 -3.41797 
-2.8125 1.8457 -3.42773 
-2.80273 1.85059 -3.4375 
-2.79688 1.85742 -3.44922 
-2.79492 1.86719 -3.4668 
-2.79297 1.87598 -3.48438 
-2.78711 1.88379 -3.49805 
-2.78516 1.89355 -3.51758 
-2.78125 1.90234 -3.5332 
-2.77539 1.90918 -3.54492 
-2.76563 1.91406 -3.55664 
-2.75781 1.91992 -3.56641 
-2.74609 1.9248 -3.57422 
-2.73242 1.92676 -3.57813 
-2.71484 1.92676 -3.57813 
-2.69531 1.9248 -3.57422 
-2.67578 1.92188 -3.57031 
-2.6543 1.91895 -3.56445 
-2.63281 1.91602 -3.55859 
-2.60938 1.91113 -3.54883 
-2.58594 1.90527 -3.53906 
-2.56055 1.89941 -3.52734 
-2.5332 1.8916 -3.51367 
-2.50586 1.88379 -3.49805 
-2.47656 1.87402 -3.48047 
-2.44727 1.86328 -3.46094 
-2.41406 1.85156 -3.43945 
-2.38086 1.83789 -3.41406 
-2.34766 1.8252 -3.38867 
-2.3125 1.81055 -3.36328 
-2.28125 1.79688 -3.33789 
-2.25 1.78516 -3.31445 
-2.21875 1.77441 -3.29492 
-2.19336 1.76465 -3.2793 
-2.16797 1.75781 -3.26367 
-2.14453 1.75098 -3.25195 
-2.12305 1.74609 -3.24414 
-2.10547 1.74414 -3.24023 
-2.08789 1.74219 -3.23438 
-2.07227 1.74219 -3.23438 
-2.05664 1.74219 -3.23438 
-2.04492 1.74414 -3.24023 
-2.0332 1.74707 -3.24609 
-2.02344 1.75195 -3.25391 
-2.01367 1.75781 -3.26367 
-2.00391 1.76172 -3.27148 
-1.99316 1.7666 -3.28125 
-1.98047 1.76855 -3.28516 
-1.9668 1.77051 -3.28906 
-1.95313 1.77148 -3.29102 
-1.9375 1.77148 -3.29102 
-1.92285 1.77246 -3.29297 
-1.90918 1.77539 -3.29688 
-1.89551 1.77637 -3.29883 
-1.88184 1.77832 -3.30273 
-1.86816 1.78027 -3.30664 
-1.85547 1.7832 -3.31055 
-1.8418 1.78516 -3.31445 
-1.8291 1.78809 -3.32227 
-1.81738 1.79199 -3.32813 
-1.80566 1.7959 -3.33594 
-1.79492 1.80078 -3.34375 
-1.7832 1.80469 -3.35156 
-1.77246 1.81055 -3.36328 
-1.76172 1.81641 -3.37305 
-1.74902 1.81934 -3.37891 
-1.73633 1.82227 -3.38477 
-1.72168 1.82422 -3.38672 
-1.70508 1.82422 -3.38672 
-1.68848 1.82227 -3.38477 
-1.66895 1.81934 -3.37891 
-1.65137 1.81738 -3.375 
-1.63281 1.81348 -3.36914 
-1.61426 1.81152 -3.36523 
-1.59766 1.81055 -3.36328 
-1.58105 1.80957 -3.36133 
-1.56543 1.81055 -3.36328 
-1.55078 1.81152 -3.36523 
-1.53613 1.8125 -3.36719 
-1.52246 1.81641 -3.37305 
-1.50879 1.81836 -3.37695 
-1.49316 1.81934 -3.37891 
-1.47852 1.82031 -3.38086 
-1.46289 1.82129 -3.38281 
-1.44727 1.82129 -3.38281 
-1.43164 1.82129 -3.38281 
-1.41309 1.81836 -3.37695 
-1.39941 1.82129 -3.38281 
-1.38086 1.81836 -3.37695 
-1.36426 1.81836 -3.37695 
-1.34863 1.81836 -3.37695 
-1.33301 1.81836 -3.37695 
-1.31641 1.81836 -3.37695 
-1.2998 1.81738 -3.375 
-1.2832 1.81641 -3.37305 
-1.26758 1.81738 -3.375 
-1.25195 1.81738 -3.375 
-1.2373 1.81934 -3.37891 
-1.22168 1.81934 -3.37891 
-1.21191 1.8291 -3.39844 
-1.20703 1.8457 -3.42773 
-1.19238 1.84766 -3.43164 
-1.17676 1.84961 -3.43555 
-1.16016 1.84961 -3.43555 
-1.14648 1.85254 -3.44141 
-1.12988 1.85254 -3.44141 
-1.10742 1.84277 -3.42188 
-1.0957 1.84961 -3.43555 
-1.07617 1.84375 -3.42383 
-1.05566 1.83594 -3.41016 
-1.04004 1.83691 -3.41211 
-1.02344 1.83594 -3.41016 
-1.00586 1.83398 -3.40625 
-0.989746 1.83398 -3.40625 
-0.973633 1.83398 -3.40625 
-0.958008 1.83496 -3.4082 
-0.940918 1.83301 -3.4043 
-0.92627 1.83594 -3.41016 
-0.912598 1.84082 -3.41797 
-0.898438 1.84473 -3.42578 
-0.883301 1.84668 -3.42969 
-0.868164 1.84961 -3.43555 
-0.853027 1.85156 -3.43945 
-0.837891 1.85449 -3.44531 
-0.823242 1.8584 -3.45117 
-0.80957 1.86328 -3.46094 
-0.79541 1.86914 -3.4707 
-0.781738 1.87598 -3.48438 
-0.768066 1.88281 -3.49609 
-0.754395 1.89063 -3.50977 
-0.740234 1.89648 -3.52344 
-0.726074 1.90332 -3.53516 
-0.711426 1.90918 -3.54492 
-0.695801 1.91211 -3.55273 
-0.680176 1.91602 -3.55859 
-0.664551 1.91797 -3.5625 
-0.647949 1.91895 -3.56445 
-0.630859 1.91895 -3.56445 
-0.614258 1.91895 -3.56445 
-0.59668 1.91797 -3.5625 
-0.580078 1.91797 -3.5625 
-0.562988 1.91797 -3.5625 
-0.545898 1.91699 -3.56055 
-0.529297 1.91699 -3.56055 
-0.512207 1.91699 -3.56055 
-0.49585 1.91797 -3.5625 
-0.479248 1.91895 -3.56445 
-0.462891 1.9209 -3.56836 
-0.446777 1.9248 -3.57422 
-0.43042 1.92676 -3.57813 
-0.414063 1.92871 -3.58203 
-0.397461 1.93066 -3.58594 
-0.381104 1.93457 -3.59375 
-0.364502 1.93652 -3.59766 
-0.347656 1.9375 -3.59961 
-0.331055 1.94043 -3.60352 
-0.314453 1.94238 -3.60742 
-0.297607 1.94434 -3.61133 
-0.281006 1.94629 -3.61523 
-0.26416 1.9502 -3.62109 
-0.247559 1.95313 -3.62695 
-0.230957 1.95801 -3.63672 
-0.214111 1.96094 -3.64258 
-0.197388 1.96582 -3.65039 
-0.18042 1.96875 -3.65625 
-0.16333 1.97168 -3.66211 
-0.146118 1.97461 -3.66602 
-0.128906 1.97656 -3.67188 
-0.111694 1.97754 -3.67383 
-0.0942383 1.97656 -3.67188 
-0.0768433 1.97559 -3.66992 
-0.0593872 1.97168 -3.66211 
-0.0419922 1.96875 -3.65625 
-0.0246429 1.96582 -3.65039 
-0.00737 1.96289 -3.64648 
0.00986481 1.96094 -3.64258 
0.0270996 1.96094 -3.64258 
0.044342 1.96191 -3.64453 
0.061676 1.96387 -3.64844 
0.0789795 1.9668 -3.65234 
0.0963135 1.96777 -3.6543 
0.113708 1.96875 -3.65625 
0.130981 1.96875 -3.65625 
0.148193 1.96777 -3.6543 
0.165527 1.96777 -3.6543 
0.182617 1.96582 -3.65039 
0.199707 1.96387 -3.64844 
0.216919 1.96289 -3.64648 
0.234009 1.96191 -3.64453 
0.250977 1.95996 -3.64063 
0.268066 1.95898 -3.63867 
0.284912 1.95801 -3.63672 
0.302002 1.95508 -3.63281 
0.318848 1.9541 -3.63086 
0.335938 1.95313 -3.62695 
0.353027 1.95313 -3.62695 
0.370361 1.9541 -3.63086 
0.387939 1.95703 -3.63477 
0.406006 1.95996 -3.64063 
0.424316 1.96582 -3.65039 
0.443115 1.97168 -3.66211 
0.462402 1.98047 -3.67969 
0.482666 1.99219 -3.69922 
0.502441 2 -3.7168 
0.522461 2.00977 -3.73438 
0.542969 2.01953 -3.75391 
0.5625 2.02734 -3.76563 
0.581055 2.0293 -3.77148 
0.661621 2.05859 -3.82227 
0.680176 2.06055 -3.82813 
1.43262 2.10156 -3.90625 
1.44727 2.0957 -3.89258 
1.45996 2.08789 -3.87891 
1.46582 2.07031 -3.8457 
1.47852 2.0625 -3.83203 
1.49219 2.05664 -3.81836 
1.50488 2.04883 -3.80664 
1.51855 2.04297 -3.79688 
1.53223 2.03711 -3.78711 
1.54688 2.0332 -3.77734 
1.56348 2.03125 -3.77344 
1.58105 2.03125 -3.77344 
1.59863 2.0293 -3.77148 
1.61328 2.02734 -3.76563 
1.625 2.01953 -3.75195 
1.63379 2.00781 -3.73047 
1.64063 1.99512 -3.70508 
1.64453 1.97852 -3.67578 
1.64648 1.96094 -3.64258 
1.64941 1.94434 -3.61133 
1.6543 1.92969 -3.58398 
1.66211 1.91895 -3.56445 
1.67188 1.91113 -3.54883 
1.68457 1.90723 -3.54102 
1.7002 1.9043 -3.53711 
1.7168 1.9043 -3.53711 
1.73633 1.9082 -3.54297 
1.75586 1.91113 -3.54883 
1.77832 1.91699 -3.56055 
1.80078 1.92383 -3.57227 
1.8252 1.93066 -3.58594 
1.85059 1.94043 -3.60352 
1.875 1.94727 -3.61719 
1.89941 1.95508 -3.63281 
1.92383 1.96191 -3.64453 
1.94531 1.9668 -3.65234 
1.96582 1.96973 -3.6582 
1.9834 1.96973 -3.6582 
1.99902 1.96875 -3.65625 
2.01367 1.96582 -3.65039 
2.02539 1.96094 -3.64258 
2.03711 1.95508 -3.63281 
2.04688 1.94922 -3.61914 
2.05664 1.94238 -3.60742 
2.06641 1.93457 -3.59375 
2.07617 1.92773 -3.58008 
2.08398 1.91992 -3.56641 
2.09375 1.91309 -3.55469 
2.10547 1.9082 -3.54297 
2.11328 1.90137 -3.53125 
2.125 1.89551 -3.52148 
2.13477 1.89063 -3.50977 
2.14453 1.88477 -3.5 
2.15625 1.87891 -3.49023 
2.16406 1.87207 -3.47852 
2.17383 1.86621 -3.46484 
2.17969 1.85742 -3.44922 
2.18555 1.84766 -3.43164 
2.1875 1.83691 -3.41211 
2.1875 1.82422 -3.38672 
2.1875 1.80957 -3.36133 
2.18555 1.79492 -3.33398 
2.18164 1.7793 -3.30469 
2.17773 1.76367 -3.27539 
2.17773 1.75098 -3.25195 
2.17969 1.73926 -3.23047 
2.18164 1.72949 -3.21289 
2.18945 1.72363 -3.20313 
2.19922 1.71973 -3.19336 
2.21094 1.71777 -3.18945 
2.22656 1.71777 -3.18945 
2.24219 1.71777 -3.18945 
2.25781 1.71777 -3.18945 
2.27148 1.71777 -3.18945 
2.28711 1.71777 -3.18945 
2.30078 1.7168 -3.1875 
2.31445 1.71484 -3.18555 
2.32617 1.71289 -3.18164 
2.33789 1.71094 -3.17773 
2.34961 1.70898 -3.17383 
2.36133 1.70508 -3.16797 
2.37305 1.70313 -3.16406 
2.38086 1.69824 -3.1543 
2.39258 1.69531 -3.14844 
2.40039 1.69043 -3.14063 
2.4082 1.68652 -3.13281 
2.41602 1.68066 -3.12305 
2.42188 1.67578 -3.11133 
2.42773 1.66895 -3.09961 
2.43164 1.66211 -3.08789 
2.43945 1.65625 -3.07617 
2.44336 1.65039 -3.06445 
2.44922 1.64453 -3.05469 
2.45703 1.63867 -3.04492 
2.46289 1.63379 -3.0332 
2.46875 1.62793 -3.02344 
2.47461 1.62207 -3.01367 
2.48047 1.61719 -3.00195 
2.48633 1.61133 -2.99219 
2.49023 1.60547 -2.98242 
2.49609 1.60059 -2.97266 
2.50195 1.59473 -2.96094 
2.50781 1.58887 -2.95117 
2.51172 1.58398 -2.94141 
2.51563 1.57715 -2.92969 
2.51953 1.57031 -2.91602 
2.52148 1.56348 -2.9043 
2.52734 1.55762 -2.89453 
2.53125 1.55273 -2.88281 
2.53516 1.54688 -2.87305 
2.54297 1.54297 -2.86523 
2.54688 1.53711 -2.85547 
2.55273 1.53223 -2.8457 
2.55664 1.52734 -2.83594 
2.55859 1.52051 -2.82422 
2.56055 1.51367 -2.8125 
2.5625 1.50684 -2.79883 
2.56445 1.50098 -2.78711 
2.56641 1.49414 -2.77539 
2.57227 1.48926 -2.76563 
2.57813 1.48535 -2.75781 
2.58398 1.48047 -2.75 
2.5918 1.47852 -2.74609 
2.59961 1.47461 -2.74023 
2.60938 1.47266 -2.73633 
2.61914 1.47168 -2.73438 
2.63281 1.47168 -2.73438 
2.64648 1.47266 -2.73633 
2.66406 1.47461 -2.74023 
2.68359 1.47852 -2.74609 
2.70508 1.48242 -2.75391 
2.72461 1.4873 -2.76172 
2.74609 1.49121 -2.77148 
2.76367 1.49414 -2.77539 
2.78125 1.49609 -2.7793 
2.79688 1.49707 -2.78125 
-3.08398 1.73535 -3.25195 
-3.08594 1.74512 -3.26953 
-3.10938 1.76855 -3.3125 
-3.10156 1.77246 -3.32227 
-3.09375 1.77734 -3.33008 
-3.07813 1.77734 -3.33008 
-3.0625 1.77734 -3.33008 
-3.05078 1.7793 -3.33398 
-3.03711 1.78027 -3.33594 
-3.02344 1.78125 -3.33789 
-3.00781 1.78125 -3.33789 
-2.99023 1.78027 -3.33594 
-2.9707 1.77832 -3.33203 
-2.94922 1.77441 -3.32617 
-2.92969 1.77246 -3.32227 
-2.91016 1.77051 -3.31836 
-2.89063 1.76855 -3.3125 
-2.87695 1.76953 -3.31445 
-2.86328 1.77051 -3.31836 
-2.87891 1.79004 -3.35352 
-2.85352 1.78516 -3.34375 
-2.85352 1.79492 -3.36328 
-2.84961 1.80078 -3.375 
-2.84375 1.80762 -3.38672 
-2.83984 1.81543 -3.40234 
-2.83203 1.82129 -3.41211 
-2.82227 1.8252 -3.41992 
-2.8125 1.83008 -3.42773 
-2.80273 1.83398 -3.4375 
-2.79297 1.83887 -3.44531 
-2.78906 1.8457 -3.45898 
-2.7832 1.85254 -3.4707 
-2.77539 1.85938 -3.48438 
-2.77148 1.86719 -3.49805 
-2.76563 1.875 -3.51367 
-2.75781 1.88086 -3.52539 
-2.75 1.88672 -3.53516 
-2.74023 1.89258 -3.54492 
-2.73047 1.89648 -3.55469 
-2.71875 1.89941 -3.56055 
-2.70313 1.90137 -3.5625 
-2.68555 1.90137 -3.5625 
-2.66992 1.90137 -3.5625 
-2.65039 1.89941 -3.56055 
-2.63086 1.89746 -3.55664 
-2.61133 1.89551 -3.55273 
-2.58984 1.89258 -3.54492 
-2.56641 1.8877 -3.53711 
-2.54297 1.88184 -3.52734 
-2.51758 1.87598 -3.51563 
-2.49023 1.86816 -3.5 
-2.46289 1.85938 -3.48438 
-2.43359 1.84961 -3.46484 
-2.40234 1.83887 -3.44531 
-2.37109 1.82617 -3.42188 
-2.33789 1.81445 -3.40039 
-2.30859 1.80371 -3.37891 
-2.2793 1.79199 -3.35938 
-2.25 1.78223 -3.33984 
-2.22266 1.77344 -3.32422 
-2.19727 1.76563 -3.30859 
-2.17578 1.76074 -3.29883 
-2.1543 1.75586 -3.29102 
-2.13477 1.75293 -3.28516 
-2.11719 1.75098 -3.28125 
-2.09961 1.75 -3.2793 
-2.08398 1.75 -3.2793 
-2.07031 1.75098 -3.28125 
-2.05859 1.75391 -3.28711 
-2.04883 1.75879 -3.29492 
-2.03711 1.7627 -3.30273 
-2.02734 1.76758 -3.31055 
-2.01563 1.77051 -3.31836 
-2.00391 1.77344 -3.32422 
-1.98926 1.77441 -3.32617 
-1.97363 1.77441 -3.32617 
-1.95898 1.77637 -3.32813 
-1.94434 1.77734 -3.33008 
-1.92969 1.77832 -3.33203 
-1.91602 1.78027 -3.33594 
-1.90137 1.78125 -3.33789 
-1.88867 1.7832 -3.3418 
-1.875 1.78613 -3.3457 
-1.86133 1.78809 -3.34961 
-1.84863 1.79102 -3.35742 
-1.83691 1.7959 -3.36523 
-1.8252 1.79883 -3.37109 
-1.81348 1.80371 -3.37891 
-1.80176 1.80762 -3.38672 
-1.79004 1.8125 -3.39648 
-1.77832 1.81641 -3.4043 
-1.7666 1.82129 -3.41211 
-1.75195 1.82324 -3.41602 
-1.73828 1.8252 -3.41992 
-1.72168 1.8252 -3.41992 
-1.70508 1.82422 -3.41797 
-1.68652 1.82227 -3.41406 
-1.66699 1.81836 -3.4082 
-1.64941 1.81641 -3.4043 
-1.63086 1.81445 -3.40039 
-1.61426 1.81348 -3.39844 
-1.59766 1.81348 -3.39844 
-1.58301 1.81445 -3.40039 
-1.56738 1.81543 -3.40234 
-1.55371 1.81738 -3.40625 
-1.54004 1.82129 -3.41211 
-1.52539 1.82227 -3.41406 
-1.51074 1.82422 -3.41797 
-1.49414 1.82422 -3.41797 
-1.47949 1.8252 -3.41992 
-1.46289 1.8252 -3.41992 
-1.44727 1.8252 -3.41992 
-1.43164 1.82617 -3.42188 
-1.41406 1.8252 -3.41992 
-1.39844 1.8252 -3.41992 
-1.38184 1.8252 -3.41992 
-1.36621 1.8252 -3.41992 
-1.34863 1.82324 -3.41602 
-1.33203 1.82324 -3.41602 
-1.31543 1.82227 -3.41406 
-1.29883 1.82227 -3.41406 
-1.28516 1.8252 -3.41992 
-1.26563 1.82129 -3.41211 
-1.25098 1.82324 -3.41602 
-1.23633 1.8252 -3.41992 
-1.22754 1.83594 -3.44141 
-1.21484 1.8418 -3.45117 
-1.2002 1.84375 -3.45508 
-1.18555 1.84766 -3.46094 
-1.17188 1.85156 -3.46875 
-1.15723 1.85352 -3.47461 
-1.13965 1.85254 -3.4707 
-1.11914 1.84473 -3.45703 
-1.10547 1.84961 -3.46484 
-1.08789 1.84766 -3.46094 
-1.06836 1.8418 -3.45117 
-1.05078 1.83984 -3.44727 
-1.0332 1.83887 -3.44531 
-1.0166 1.83691 -3.44336 
-1 1.83691 -3.44336 
-0.984375 1.83691 -3.44336 
-0.96875 1.83887 -3.44531 
-0.958984 1.85156 -3.46875 
-0.939453 1.84473 -3.45703 
-0.925781 1.85059 -3.4668 
-0.90918 1.85059 -3.4668 
-0.893555 1.85156 -3.46875 
-0.877441 1.85254 -3.4707 
-0.861328 1.85352 -3.47461 
-0.84668 1.85742 -3.48047 
-0.831543 1.86035 -3.48633 
-0.817383 1.86621 -3.49609 
-0.803223 1.87109 -3.50586 
-0.789551 1.87793 -3.51953 
-0.775391 1.88477 -3.53125 
-0.76123 1.88965 -3.54102 
-0.746582 1.89551 -3.55273 
-0.731934 1.90137 -3.5625 
-0.716309 1.9043 -3.56836 
-0.700684 1.90723 -3.57422 
-0.68457 1.91016 -3.57813 
-0.667969 1.91113 -3.58008 
-0.651367 1.91211 -3.58203 
-0.634766 1.91309 -3.58398 
-0.617676 1.91309 -3.58398 
-0.600586 1.91309 -3.58398 
-0.583496 1.91211 -3.58203 
-0.565918 1.91113 -3.58008 
-0.549316 1.91113 -3.58008 
-0.531738 1.91016 -3.57813 
-0.514648 1.9082 -3.57617 
-0.498291 1.91016 -3.57813 
-0.481201 1.91016 -3.57813 
-0.464844 1.91211 -3.58203 
-0.448486 1.91406 -3.58594 
-0.431885 1.91602 -3.5918 
-0.415527 1.91895 -3.5957 
-0.39917 1.92188 -3.60156 
-0.382568 1.92383 -3.60547 
-0.365967 1.92578 -3.60938 
-0.348877 1.92773 -3.61133 
-0.332031 1.92871 -3.61328 
-0.31543 1.93066 -3.61719 
-0.298584 1.93262 -3.62109 
-0.281982 1.93652 -3.62695 
-0.265137 1.93945 -3.63477 
-0.248657 1.94336 -3.64258 
-0.231812 1.94727 -3.64844 
-0.214966 1.95117 -3.65625 
-0.19812 1.95605 -3.66406 
-0.18103 1.95898 -3.67188 
-0.16394 1.96289 -3.67773 
-0.146729 1.96484 -3.68164 
-0.129517 1.9668 -3.68555 
-0.112061 1.9668 -3.68555 
-0.0946045 1.9668 -3.68555 
-0.0771484 1.96582 -3.68359 
-0.0596619 1.96387 -3.67969 
-0.0422058 1.96094 -3.67578 
-0.0247803 1.95898 -3.67188 
-0.00741577 1.95801 -3.66992 
0.00993347 1.95703 -3.66602 
0.027298 1.95801 -3.66992 
0.0446472 1.95801 -3.66992 
0.0620422 1.95898 -3.67188 
0.0794678 1.95996 -3.67383 
0.0968018 1.95996 -3.67383 
0.114197 1.95996 -3.67383 
0.13147 1.95801 -3.66992 
0.148682 1.95703 -3.66602 
0.165894 1.95508 -3.66211 
0.183105 1.9541 -3.66016 
0.200317 1.95215 -3.6582 
0.217529 1.95117 -3.65625 
0.234741 1.95117 -3.65625 
0.251953 1.95117 -3.65625 
0.269531 1.95215 -3.6582 
0.286865 1.95215 -3.6582 
0.304199 1.95215 -3.6582 
0.321533 1.95215 -3.6582 
0.338867 1.95215 -3.6582 
0.356201 1.9541 -3.66016 
0.374268 1.95703 -3.66602 
0.39209 1.95898 -3.67188 
0.4104 1.96387 -3.67969 
0.429199 1.96973 -3.69141 
0.448242 1.97754 -3.70508 
0.467773 1.98535 -3.7207 
0.486816 1.99219 -3.73242 
0.506348 1.99902 -3.74414 
0.527832 2.01367 -3.77344 
0.546387 2.01563 -3.77734 
0.56543 2.01953 -3.78711 
1.41016 2.07617 -3.89258 
1.42383 2.07031 -3.88086 
1.43652 2.0625 -3.86523 
1.45117 2.05664 -3.85352 
1.45801 2.04102 -3.82617 
1.46777 2.0293 -3.80469 
1.47852 2.01953 -3.7832 
1.49023 2.01172 -3.76953 
1.50293 2.00391 -3.75781 
1.5166 2 -3.74805 
1.53418 1.99902 -3.74414 
1.55273 2 -3.75 
1.57324 2.00391 -3.75586 
1.59277 2.00586 -3.75977 
1.61035 2.00586 -3.75977 
1.62402 2 -3.75 
1.63477 1.99219 -3.73242 
1.6416 1.97852 -3.70898 
1.64648 1.96387 -3.67969 
1.64941 1.94727 -3.64844 
1.65332 1.93164 -3.61914 
1.66016 1.91992 -3.59766 
1.66895 1.91016 -3.57813 
1.68066 1.9043 -3.56836 
1.69434 1.90137 -3.5625 
1.71094 1.89941 -3.56055 
1.72852 1.90137 -3.5625 
1.74805 1.9043 -3.56836 
1.76855 1.90723 -3.57422 
1.78906 1.91211 -3.58203 
1.81055 1.91602 -3.5918 
1.83301 1.92188 -3.60156 
1.85449 1.92773 -3.61133 
1.87891 1.93359 -3.62305 
1.89941 1.93848 -3.63281 
1.92188 1.94238 -3.64063 
1.94043 1.94531 -3.64453 
1.95898 1.94629 -3.64648 
1.97656 1.94629 -3.64648 
1.99121 1.94336 -3.64258 
2.00586 1.94141 -3.63867 
2.01953 1.93848 -3.63281 
2.0332 1.93359 -3.62305 
2.04297 1.92871 -3.61328 
2.05273 1.92188 -3.60156 
2.06445 1.91504 -3.58789 
2.07422 1.9082 -3.57617 
2.08398 1.90234 -3.56445 
2.09375 1.89648 -3.55469 
2.10547 1.89063 -3.54297 
2.11719 1.88672 -3.53516 
2.12695 1.88086 -3.52539 
2.13867 1.87695 -3.51758 
2.15039 1.87207 -3.50781 
2.16211 1.86816 -3.5 
2.16992 1.86133 -3.48828 
2.17969 1.85449 -3.47656 
2.1875 1.84766 -3.46094 
2.19141 1.83691 -3.44336 
2.19336 1.8252 -3.41992 
2.19531 1.81348 -3.39844 
2.19141 1.79785 -3.36914 
2.19141 1.7832 -3.3418 
2.1875 1.76855 -3.3125 
2.18359 1.75293 -3.28516 
2.18359 1.73926 -3.25977 
2.18359 1.72852 -3.24023 
2.1875 1.71875 -3.2207 
2.19336 1.71191 -3.20898 
2.20313 1.70801 -3.20117 
2.2168 1.70703 -3.19727 
2.23047 1.70605 -3.19531 
2.24805 1.70703 -3.19727 
2.26367 1.70703 -3.19727 
2.2793 1.70801 -3.20117 
2.29297 1.70703 -3.19727 
2.30859 1.70703 -3.19727 
2.32031 1.7041 -3.19336 
2.33398 1.70313 -3.19141 
2.34375 1.7002 -3.18555 
2.35742 1.69824 -3.18164 
2.36523 1.69336 -3.17383 
2.375 1.69043 -3.16797 
2.38477 1.68555 -3.1582 
2.39258 1.68164 -3.15039 
2.40039 1.67578 -3.14063 
2.4082 1.6709 -3.13086 
2.41406 1.66504 -3.11914 
2.41992 1.6582 -3.10742 
2.42383 1.65234 -3.0957 
2.42969 1.64551 -3.08398 
2.43359 1.63867 -3.07031 
2.43945 1.63184 -3.05859 
2.44531 1.62695 -3.04883 
2.45117 1.62109 -3.03711 
2.45703 1.61523 -3.02734 
2.46289 1.61035 -3.01758 
2.46875 1.60449 -3.00781 
2.47266 1.59863 -2.99414 
2.47852 1.59277 -2.98438 
2.48438 1.58691 -2.97461 
2.49023 1.58203 -2.96289 
2.49414 1.57617 -2.95313 
2.50195 1.57227 -2.94531 
2.50586 1.56543 -2.93359 
2.50977 1.55957 -2.92188 
2.51563 1.55469 -2.91211 
2.51953 1.54883 -2.90234 
2.52734 1.54395 -2.89453 
2.53125 1.53906 -2.88281 
2.53711 1.53418 -2.875 
2.54688 1.53125 -2.86914 
2.55078 1.52539 -2.85938 
2.55664 1.52148 -2.85156 
2.55859 1.51465 -2.83789 
2.56055 1.50781 -2.82617 
2.56055 1.50098 -2.8125 
2.56055 1.49316 -2.79688 
2.5625 1.48633 -2.78516 
2.56445 1.47949 -2.77344 
2.56836 1.47461 -2.76172 
2.57422 1.46973 -2.75391 
2.58398 1.46777 -2.75 
2.58984 1.46387 -2.74414 
2.59961 1.46191 -2.74023 
2.61133 1.46094 -2.73828 
2.61914 1.45898 -2.73438 
2.63281 1.45898 -2.73438 
2.64648 1.45996 -2.73633 
2.66211 1.46094 -2.73828 
2.68164 1.46387 -2.74414 
2.69922 1.4668 -2.74805 
2.71875 1.4707 -2.75586 
2.73633 1.47266 -2.75977 
2.75586 1.47656 -2.76563 
2.77148 1.47754 -2.76758 
2.78711 1.47852 -2.77148 
-3.10156 1.73828 -3.28711 
-3.12695 1.7627 -3.33203 
-3.12695 1.77148 -3.34766 
-3.125 1.77832 -3.36328 
-3.11328 1.78125 -3.36719 
-3.09766 1.78223 -3.36914 
-3.08398 1.7832 -3.37109 
-3.07227 1.78516 -3.375 
-3.05664 1.78516 -3.375 
-3.05078 1.79199 -3.38672 
-3.02344 1.78516 -3.375 
-3.00586 1.78418 -3.37305 
-2.98438 1.78125 -3.36719 
-2.96484 1.77832 -3.36328 
-2.94531 1.77637 -3.35938 
-2.92773 1.77539 -3.35742 
-2.91406 1.77637 -3.35938 
-2.90039 1.77734 -3.36133 
-2.90234 1.78809 -3.38086 
-2.88477 1.78711 -3.37891 
-2.87891 1.79395 -3.39063 
-2.87109 1.79883 -3.40234 
-2.86133 1.80371 -3.41016 
-2.85547 1.81055 -3.42188 
-2.84766 1.81445 -3.42969 
-2.83594 1.81738 -3.4375 
-2.82422 1.82129 -3.44336 
-2.81445 1.8252 -3.45117 
-2.80469 1.83008 -3.45898 
-2.79688 1.83496 -3.46875 
-2.78906 1.84082 -3.48047 
-2.78125 1.8457 -3.49023 
-2.77344 1.85254 -3.50195 
-2.76563 1.8584 -3.51367 
-2.75781 1.86328 -3.52344 
-2.74805 1.86914 -3.5332 
-2.74023 1.87402 -3.54297 
-2.72656 1.87793 -3.54883 
-2.71484 1.88086 -3.55664 
-2.70117 1.88281 -3.56055 
-2.68555 1.88379 -3.5625 
-2.67188 1.88477 -3.56445 
-2.6543 1.88477 -3.56445 
-2.63672 1.88477 -3.56445 
-2.61914 1.88379 -3.5625 
-2.59961 1.88184 -3.55859 
-2.57813 1.87891 -3.55273 
-2.55664 1.875 -3.54492 
-2.5332 1.87109 -3.53711 
-2.50977 1.86523 -3.52734 
-2.48242 1.8584 -3.51367 
-2.45703 1.85059 -3.49805 
-2.42773 1.8418 -3.48242 
-2.39844 1.83203 -3.46289 
-2.36914 1.82227 -3.44531 
-2.33984 1.8125 -3.42578 
-2.3125 1.80371 -3.41016 
-2.28711 1.79492 -3.39258 
-2.26172 1.78809 -3.38086 
-2.23828 1.78223 -3.36914 
-2.21484 1.77637 -3.35938 
-2.19336 1.77246 -3.34961 
-2.17578 1.76953 -3.3457 
-2.15625 1.7666 -3.33984 
-2.13867 1.76563 -3.33789 
-2.12305 1.76563 -3.33789 
-2.10742 1.7666 -3.33984 
-2.09375 1.76855 -3.34375 
-2.08398 1.77344 -3.35156 
-2.07227 1.77637 -3.35938 
-2.06055 1.7793 -3.36523 
-2.04688 1.78223 -3.36914 
-2.03125 1.7832 -3.37109 
-2.01758 1.78418 -3.37305 
-2.00195 1.78418 -3.37305 
-1.98535 1.78418 -3.37305 
-1.9707 1.78516 -3.375 
-1.95605 1.78613 -3.37695 
-1.94238 1.78809 -3.38086 
-1.92773 1.78906 -3.38281 
-1.91406 1.79199 -3.38672 
-1.89941 1.79297 -3.38867 
-1.88672 1.7959 -3.39648 
-1.87207 1.79785 -3.40039 
-1.85938 1.80176 -3.40625 
-1.84668 1.80469 -3.41211 
-1.83496 1.80957 -3.41992 
-1.82227 1.8125 -3.42578 
-1.80957 1.81543 -3.43164 
-1.79688 1.81934 -3.43945 
-1.78418 1.82324 -3.44727 
-1.77051 1.8252 -3.45117 
-1.75586 1.82715 -3.45508 
-1.73926 1.82715 -3.45508 
-1.72266 1.82617 -3.45313 
-1.7041 1.82422 -3.44922 
-1.68555 1.82227 -3.44531 
-1.66602 1.81934 -3.43945 
-1.64844 1.81641 -3.43555 
-1.63086 1.81543 -3.43164 
-1.61523 1.81641 -3.43555 
-1.60059 1.81738 -3.4375 
-1.58691 1.82129 -3.44336 
-1.57227 1.82324 -3.44727 
-1.55762 1.8252 -3.45117 
-1.54297 1.82715 -3.45508 
-1.52832 1.8291 -3.45703 
-1.5127 1.83008 -3.45898 
-1.49609 1.83008 -3.45898 
-1.47949 1.83008 -3.45898 
-1.46387 1.83008 -3.45898 
-1.44824 1.83105 -3.46094 
-1.43164 1.83105 -3.46094 
-1.41504 1.83105 -3.46094 
-1.39844 1.83105 -3.46094 
-1.38281 1.83105 -3.46094 
-1.36523 1.83008 -3.45898 
-1.34766 1.82715 -3.45508 
-1.33105 1.82715 -3.45508 
-1.31348 1.82617 -3.45313 
-1.29883 1.8291 -3.45703 
-1.28418 1.83105 -3.46094 
-1.26953 1.83301 -3.46484 
-1.25391 1.83398 -3.4668 
-1.24023 1.83887 -3.47656 
-1.22656 1.84277 -3.48438 
-1.20898 1.8418 -3.48242 
-1.19727 1.84863 -3.49414 
-1.18066 1.84863 -3.49414 
-1.16504 1.84961 -3.49609 
-1.14844 1.85059 -3.49805 
-1.13086 1.84863 -3.49414 
-1.11426 1.84863 -3.49414 
-1.09766 1.84668 -3.49219 
-1.0791 1.84473 -3.48828 
-1.0625 1.84375 -3.48633 
-1.04492 1.84277 -3.48438 
-1.0293 1.84375 -3.48633 
-1.0127 1.84375 -3.48633 
-0.99707 1.84473 -3.48828 
-0.988281 1.85938 -3.51563 
-0.970215 1.85645 -3.50977 
-0.952148 1.85352 -3.50391 
-0.936523 1.85547 -3.50781 
-0.919922 1.85547 -3.50781 
-0.90332 1.85547 -3.50781 
-0.886719 1.85547 -3.50781 
-0.870605 1.85645 -3.50977 
-0.85498 1.85938 -3.51563 
-0.840332 1.86328 -3.52344 
-0.825684 1.86816 -3.53125 
-0.811523 1.87305 -3.54102 
-0.796875 1.87891 -3.55273 
-0.782715 1.88477 -3.56445 
-0.767578 1.88965 -3.57227 
-0.752441 1.89355 -3.58008 
-0.736816 1.89746 -3.58594 
-0.720703 1.89941 -3.5918 
-0.704102 1.90039 -3.59375 
-0.6875 1.90137 -3.5957 
-0.670898 1.90234 -3.59766 
-0.654297 1.90332 -3.59961 
-0.637695 1.9043 -3.60156 
-0.620605 1.9043 -3.60156 
-0.603516 1.9043 -3.60156 
-0.586426 1.9043 -3.60156 
-0.568848 1.90332 -3.59961 
-0.551758 1.90234 -3.59766 
-0.53418 1.90137 -3.5957 
-0.51709 1.90039 -3.59375 
-0.5 1.89941 -3.5918 
-0.483154 1.90039 -3.59375 
-0.466553 1.90137 -3.5957 
-0.449951 1.90332 -3.59961 
-0.43335 1.90625 -3.60352 
-0.416748 1.9082 -3.60742 
-0.400391 1.91113 -3.61328 
-0.383789 1.91309 -3.61719 
-0.366943 1.91504 -3.61914 
-0.350098 1.91699 -3.62305 
-0.333252 1.91797 -3.625 
-0.316406 1.91992 -3.63086 
-0.299561 1.92188 -3.63477 
-0.282959 1.92578 -3.64063 
-0.266113 1.92969 -3.64844 
-0.249634 1.93457 -3.65625 
-0.232788 1.93848 -3.66406 
-0.216064 1.94434 -3.67578 
-0.199097 1.94824 -3.68359 
-0.182007 1.95117 -3.68945 
-0.164673 1.9541 -3.69336 
-0.147339 1.95605 -3.69727 
-0.130005 1.95703 -3.69922 
-0.112488 1.95703 -3.69922 
-0.0949707 1.95703 -3.69922 
-0.0774536 1.95605 -3.69727 
-0.0598755 1.9541 -3.69336 
-0.0423889 1.95215 -3.69141 
-0.0249176 1.95117 -3.68945 
-0.00745392 1.9502 -3.6875 
0.00999451 1.95117 -3.68945 
0.0274506 1.95117 -3.68945 
0.0449219 1.95215 -3.69141 
0.062439 1.9541 -3.69336 
0.079895 1.9541 -3.69336 
0.09729 1.95215 -3.69141 
0.114746 1.95117 -3.68945 
0.131958 1.94922 -3.68555 
0.149292 1.94727 -3.68164 
0.166504 1.94531 -3.67773 
0.183716 1.94238 -3.67383 
0.20105 1.94238 -3.67383 
0.218506 1.94238 -3.67383 
0.235962 1.94434 -3.67578 
0.253418 1.94531 -3.67773 
0.27124 1.94727 -3.68164 
0.288818 1.94922 -3.68555 
0.306396 1.9502 -3.6875 
0.324219 1.95117 -3.68945 
0.341797 1.95215 -3.69141 
0.359619 1.95508 -3.69531 
0.377686 1.95801 -3.70117 
0.395996 1.96094 -3.70898 
0.414551 1.9668 -3.71875 
0.43335 1.97266 -3.72852 
0.452881 1.97949 -3.74219 
0.471924 1.98535 -3.75391 
0.490723 1.98926 -3.76172 
0.509766 1.99512 -3.77148 
0.53125 2.00781 -3.79883 
0.549805 2.01172 -3.80273 
1.38965 2.05469 -3.88672 
1.40234 2.04688 -3.87109 
1.42188 2.04883 -3.875 
1.43164 2.03711 -3.85156 
1.44141 2.02539 -3.83008 
1.44824 2.00977 -3.80078 
1.45703 1.99707 -3.77539 
1.46582 1.98535 -3.75391 
1.47852 1.97754 -3.73828 
1.49121 1.9707 -3.72656 
1.50586 1.96777 -3.7207 
1.52441 1.96875 -3.72266 
1.5459 1.97461 -3.73242 
1.57031 1.98242 -3.74805 
1.5918 1.9873 -3.75781 
1.6123 1.99023 -3.76367 
1.62891 1.98828 -3.75977 
1.63965 1.98047 -3.74414 
1.64746 1.96875 -3.72266 
1.65234 1.9541 -3.69336 
1.65723 1.93848 -3.66406 
1.66211 1.9248 -3.63867 
1.66895 1.91211 -3.61523 
1.67969 1.9043 -3.60156 
1.69238 1.90039 -3.59375 
1.70703 1.89844 -3.58789 
1.72461 1.89844 -3.58789 
1.74219 1.89941 -3.5918 
1.76172 1.90137 -3.5957 
1.7793 1.90234 -3.59766 
1.79883 1.9043 -3.60156 
1.81836 1.9082 -3.60742 
1.83887 1.91113 -3.61328 
1.85938 1.91504 -3.61914 
1.87891 1.91699 -3.62305 
1.89844 1.91992 -3.63086 
1.91797 1.92188 -3.63477 
1.93652 1.92285 -3.63672 
1.9541 1.92285 -3.63672 
1.96973 1.92188 -3.63477 
1.98438 1.91992 -3.63086 
2 1.91797 -3.625 
2.01367 1.91504 -3.61914 
2.02734 1.91113 -3.61328 
2.03906 1.90723 -3.60547 
2.05078 1.90137 -3.5957 
2.06055 1.89453 -3.58203 
2.07031 1.88965 -3.57227 
2.08008 1.88281 -3.56055 
2.0918 1.87793 -3.54883 
2.10352 1.87305 -3.54102 
2.11719 1.87012 -3.53516 
2.12891 1.86523 -3.52734 
2.14063 1.8623 -3.52148 
2.1543 1.85938 -3.51563 
2.16602 1.85449 -3.50586 
2.17578 1.84961 -3.49609 
2.18555 1.84277 -3.48438 
2.19141 1.83496 -3.46875 
2.19727 1.8252 -3.45117 
2.19922 1.81445 -3.42969 
2.20117 1.80273 -3.4082 
2.20117 1.78809 -3.38086 
2.19727 1.77344 -3.35156 
2.19531 1.75879 -3.32617 
2.19141 1.74414 -3.29688 
2.19141 1.73047 -3.27148 
2.19336 1.71973 -3.25195 
2.19531 1.70996 -3.23242 
2.20313 1.70313 -3.2207 
2.21094 1.69824 -3.21094 
2.22266 1.69629 -3.20703 
2.23633 1.69531 -3.20508 
2.25195 1.69531 -3.20508 
2.26758 1.69629 -3.20703 
2.28516 1.69727 -3.20898 
2.29883 1.69629 -3.20703 
2.31445 1.69629 -3.20703 
2.32617 1.69336 -3.20313 
2.33789 1.69141 -3.19727 
2.34961 1.68848 -3.19141 
2.35938 1.68555 -3.18555 
2.36914 1.68164 -3.17969 
2.37695 1.67676 -3.16992 
2.38672 1.67188 -3.16211 
2.39258 1.66602 -3.14844 
2.39844 1.66016 -3.13867 
2.4043 1.65332 -3.12695 
2.41016 1.64844 -3.11523 
2.41602 1.6416 -3.10352 
2.42188 1.63477 -3.0918 
2.42578 1.62891 -3.07813 
2.43164 1.62207 -3.06641 
2.4375 1.61621 -3.05664 
2.44141 1.61035 -3.04492 
2.44531 1.60352 -3.03125 
2.45313 1.59766 -3.02148 
2.45898 1.59277 -3.01172 
2.46289 1.58594 -2.99805 
2.46875 1.58105 -2.98828 
2.47266 1.5752 -2.97852 
2.47656 1.56836 -2.9668 
2.48242 1.56348 -2.95508 
2.48828 1.55762 -2.94531 
2.49414 1.55273 -2.93555 
2.49805 1.54688 -2.92383 
2.50586 1.54297 -2.91602 
2.50977 1.53711 -2.90625 
2.51758 1.5332 -2.89844 
2.52539 1.5293 -2.89258 
2.5332 1.52637 -2.88477 
2.54102 1.52344 -2.87891 
2.54883 1.51953 -2.87305 
2.55664 1.51563 -2.86523 
2.56055 1.50977 -2.85547 
2.5625 1.50391 -2.8418 
2.56445 1.49707 -2.83008 
2.56445 1.48926 -2.81641 
2.56445 1.48145 -2.80078 
2.56445 1.47461 -2.78711 
2.56641 1.46777 -2.77539 
2.57031 1.46191 -2.76367 
2.57617 1.45801 -2.75586 
2.58398 1.4541 -2.75 
2.58984 1.45117 -2.74414 
2.59961 1.44922 -2.74023 
2.61133 1.44824 -2.73828 
2.61914 1.44629 -2.73438 
2.63281 1.44629 -2.73438 
2.64453 1.44629 -2.73438 
2.66016 1.44727 -2.73633 
2.67578 1.44824 -2.73828 
2.69141 1.4502 -2.74219 
2.70898 1.45215 -2.74609 
2.72656 1.4541 -2.75 
2.74219 1.45605 -2.75195 
2.75586 1.45703 -2.75391 
2.77148 1.45801 -2.75586 
-3.1875 1.78027 -3.39648 
-3.15625 1.77148 -3.37891 
-3.16016 1.7832 -3.40234 
-3.17383 1.7998 -3.43164 
-3.15625 1.7998 -3.43164 
-3.14453 1.80176 -3.4375 
-3.12891 1.80176 -3.4375 
-3.10938 1.80078 -3.43555 
-3.0957 1.80176 -3.4375 
-3.07031 1.7959 -3.42578 
-3.04492 1.79102 -3.41602 
-3.02539 1.78906 -3.41211 
-3.00586 1.78613 -3.4082 
-2.98828 1.78516 -3.40625 
-2.96875 1.78418 -3.4043 
-2.95508 1.78516 -3.40625 
-2.94336 1.78711 -3.41016 
-2.93555 1.79297 -3.41992 
-2.92188 1.79395 -3.42188 
-2.91016 1.79688 -3.42773 
-2.89844 1.80078 -3.43555 
-2.88867 1.80371 -3.44141 
-2.87891 1.80762 -3.44922 
-2.86914 1.8125 -3.45703 
-2.85742 1.81543 -3.46289 
-2.8457 1.81836 -3.46875 
-2.83594 1.82324 -3.47852 
-2.82617 1.82617 -3.48438 
-2.81445 1.83105 -3.49219 
-2.80664 1.83594 -3.50195 
-2.79688 1.83984 -3.50977 
-2.78906 1.8457 -3.52148 
-2.7793 1.84961 -3.5293 
-2.76758 1.85449 -3.53711 
-2.75781 1.8584 -3.54492 
-2.74805 1.86328 -3.55469 
-2.73438 1.86621 -3.56055 
-2.72266 1.86914 -3.56641 
-2.70898 1.87109 -3.57031 
-2.69336 1.87305 -3.57227 
-2.67969 1.875 -3.57617 
-2.66406 1.875 -3.57617 
-2.64844 1.87598 -3.57813 
-2.63086 1.87598 -3.57813 
-2.61328 1.875 -3.57617 
-2.5918 1.87305 -3.57227 
-2.57227 1.87012 -3.56836 
-2.55078 1.86719 -3.5625 
-2.5293 1.86426 -3.55664 
-2.50781 1.85938 -3.54688 
-2.48242 1.85352 -3.53516 
-2.45703 1.84668 -3.52344 
-2.43164 1.83984 -3.50977 
-2.4043 1.83301 -3.49609 
-2.37891 1.8252 -3.48242 
-2.35352 1.81836 -3.46875 
-2.33008 1.8125 -3.45703 
-2.30469 1.80566 -3.44531 
-2.28125 1.80078 -3.43555 
-2.25977 1.7959 -3.42578 
-2.24023 1.79297 -3.41992 
-2.2207 1.79102 -3.41602 
-2.20117 1.78906 -3.41211 
-2.18359 1.78613 -3.4082 
-2.16602 1.78613 -3.4082 
-2.15234 1.78711 -3.41016 
-2.13867 1.79004 -3.41406 
-2.125 1.79199 -3.41797 
-2.11328 1.79492 -3.42383 
-2.09766 1.7959 -3.42578 
-2.08203 1.79688 -3.42773 
-2.06641 1.79688 -3.42773 
-2.05078 1.79688 -3.42773 
-2.0332 1.79688 -3.42773 
-2.01758 1.79688 -3.42773 
-2.00195 1.79785 -3.42969 
-1.98828 1.7998 -3.43164 
-1.97266 1.80078 -3.43555 
-1.95801 1.80176 -3.4375 
-1.94336 1.80273 -3.43945 
-1.92773 1.80371 -3.44141 
-1.91406 1.80566 -3.44531 
-1.89941 1.80762 -3.44922 
-1.88574 1.81055 -3.45313 
-1.87012 1.81152 -3.45508 
-1.85645 1.81348 -3.45898 
-1.84277 1.81641 -3.46484 
-1.8291 1.81836 -3.46875 
-1.81641 1.82324 -3.47852 
-1.80371 1.82617 -3.48438 
-1.78906 1.82813 -3.48828 
-1.77344 1.8291 -3.49023 
-1.75781 1.83105 -3.49219 
-1.74023 1.8291 -3.49023 
-1.72168 1.82715 -3.48633 
-1.70313 1.82422 -3.48047 
-1.68457 1.82227 -3.47656 
-1.66504 1.81836 -3.46875 
-1.64844 1.81836 -3.46875 
-1.63281 1.82031 -3.4707 
-1.61816 1.82227 -3.47656 
-1.60547 1.82617 -3.48438 
-1.59082 1.82813 -3.48828 
-1.57715 1.83203 -3.49414 
-1.56152 1.83301 -3.49609 
-1.5459 1.83398 -3.49805 
-1.53027 1.83496 -3.5 
-1.51367 1.83496 -3.5 
-1.49707 1.83496 -3.5 
-1.48047 1.83496 -3.5 
-1.46387 1.83496 -3.5 
-1.44824 1.83594 -3.50195 
-1.43164 1.83594 -3.50195 
-1.41504 1.83594 -3.50195 
-1.39844 1.83594 -3.50195 
-1.38184 1.83496 -3.5 
-1.36426 1.83398 -3.49805 
-1.34668 1.83301 -3.49609 
-1.3291 1.83203 -3.49414 
-1.31348 1.83301 -3.49609 
-1.29688 1.83301 -3.49609 
-1.28223 1.83496 -3.5 
-1.2666 1.83594 -3.50195 
-1.25195 1.83887 -3.50781 
-1.23828 1.84375 -3.51758 
-1.22266 1.8457 -3.52148 
-1.20703 1.84668 -3.52344 
-1.19043 1.84668 -3.52344 
-1.17383 1.84766 -3.52539 
-1.15723 1.84766 -3.52539 
-1.14063 1.84766 -3.52539 
-1.12402 1.84766 -3.52539 
-1.10742 1.84668 -3.52344 
-1.08984 1.8457 -3.52148 
-1.07324 1.8457 -3.52148 
-1.05664 1.8457 -3.52148 
-1.04004 1.8457 -3.52148 
-1.02344 1.84668 -3.52344 
-1.01465 1.86035 -3.54883 
-0.998047 1.86035 -3.54883 
-0.980957 1.86035 -3.54883 
-0.963867 1.85938 -3.54688 
-0.947266 1.85938 -3.54688 
-0.930176 1.85938 -3.54688 
-0.913574 1.85938 -3.54688 
-0.896484 1.85938 -3.54688 
-0.879883 1.85938 -3.54688 
-0.864258 1.8623 -3.55273 
-0.848633 1.86523 -3.55859 
-0.833984 1.86914 -3.56641 
-0.819336 1.875 -3.57617 
-0.804688 1.87988 -3.58594 
-0.789551 1.88477 -3.5957 
-0.773926 1.8877 -3.60156 
-0.757813 1.88965 -3.60547 
-0.741211 1.89063 -3.60742 
-0.724609 1.8916 -3.60938 
-0.70752 1.8916 -3.60938 
-0.69043 1.89355 -3.61133 
-0.67334 1.89355 -3.61133 
-0.656738 1.89453 -3.61328 
-0.640137 1.89551 -3.61523 
-0.623047 1.89551 -3.61523 
-0.606445 1.89648 -3.61719 
-0.588867 1.89551 -3.61523 
-0.571289 1.89453 -3.61328 
-0.553711 1.89355 -3.61133 
-0.536621 1.8916 -3.60938 
-0.519043 1.89063 -3.60742 
-0.501953 1.88965 -3.60547 
-0.485107 1.89063 -3.60742 
-0.468262 1.8916 -3.60938 
-0.45166 1.89453 -3.61328 
-0.435059 1.89648 -3.61719 
-0.418457 1.89844 -3.62109 
-0.401855 1.90039 -3.625 
-0.385254 1.9043 -3.63281 
-0.368408 1.90527 -3.63477 
-0.351563 1.90723 -3.63867 
-0.334473 1.9082 -3.64063 
-0.317627 1.91016 -3.64453 
-0.301025 1.91406 -3.65039 
-0.28418 1.91699 -3.65625 
-0.267578 1.92188 -3.66602 
-0.250732 1.92676 -3.67578 
-0.234131 1.93164 -3.68555 
-0.217163 1.93652 -3.69336 
-0.200073 1.94043 -3.70117 
-0.182983 1.94531 -3.71094 
-0.165649 1.94727 -3.71484 
-0.148193 1.94824 -3.7168 
-0.130493 1.94824 -3.7168 
-0.112976 1.94824 -3.7168 
-0.0953369 1.94727 -3.71484 
-0.0777588 1.94629 -3.71289 
-0.0601501 1.94531 -3.71094 
-0.042572 1.94336 -3.70898 
-0.0250397 1.94336 -3.70898 
-0.00749588 1.94336 -3.70898 
0.0100555 1.94531 -3.71094 
0.0276184 1.94629 -3.71289 
0.045166 1.94629 -3.71289 
0.0627441 1.94727 -3.71484 
0.0803223 1.94727 -3.71484 
0.0978394 1.94629 -3.71289 
0.115295 1.94336 -3.70898 
0.13269 1.94141 -3.70313 
0.149902 1.93848 -3.69727 
0.167236 1.93652 -3.69336 
0.184692 1.93555 -3.69141 
0.202148 1.93555 -3.69141 
0.219727 1.93652 -3.69336 
0.237427 1.93848 -3.69727 
0.255127 1.93945 -3.69922 
0.272949 1.94238 -3.70508 
0.291016 1.94629 -3.71289 
0.308838 1.94824 -3.7168 
0.32666 1.94922 -3.71875 
0.344727 1.95117 -3.72266 
0.362549 1.95313 -3.72656 
0.380859 1.95703 -3.73242 
0.398926 1.95898 -3.73633 
0.417969 1.96387 -3.74805 
0.436768 1.96973 -3.75781 
0.455811 1.97461 -3.76758 
0.473877 1.97656 -3.76953 
0.490723 1.97168 -3.76172 
0.511719 1.98535 -3.78906 
1.36133 2.05078 -3.91211 
1.37109 2.03711 -3.88672 
1.38477 2.03125 -3.875 
1.40234 2.0293 -3.87305 
1.41406 2.01953 -3.85352 
1.42383 2.00781 -3.83203 
1.43262 1.99512 -3.80664 
1.44043 1.98145 -3.7793 
1.44922 1.96875 -3.75586 
1.45801 1.95703 -3.73242 
1.46973 1.94922 -3.71875 
1.4834 1.94336 -3.70898 
1.5 1.94238 -3.70508 
1.52148 1.94727 -3.71484 
1.5459 1.95605 -3.73047 
1.57129 1.96582 -3.75 
1.59668 1.97461 -3.76758 
1.61816 1.97949 -3.77539 
1.63477 1.97852 -3.77344 
1.64746 1.97168 -3.76172 
1.65625 1.96094 -3.74023 
1.66309 1.94824 -3.7168 
1.66602 1.93164 -3.68555 
1.67285 1.91895 -3.66016 
1.68066 1.9082 -3.64063 
1.69141 1.90137 -3.62695 
1.70605 1.89844 -3.62109 
1.72168 1.89746 -3.61914 
1.73926 1.89746 -3.61914 
1.75781 1.89844 -3.62109 
1.77441 1.89844 -3.62109 
1.79199 1.89844 -3.62109 
1.80859 1.89844 -3.62109 
1.82617 1.89844 -3.62109 
1.84277 1.89844 -3.62109 
1.86133 1.89941 -3.62305 
1.87988 1.90039 -3.625 
1.89746 1.90137 -3.62695 
1.91504 1.90137 -3.62695 
1.93164 1.90137 -3.62695 
1.94824 1.90039 -3.625 
1.96289 1.89844 -3.62109 
1.97754 1.89648 -3.61719 
1.99316 1.89453 -3.61328 
2.00781 1.8916 -3.60938 
2.02148 1.88867 -3.60352 
2.0332 1.88477 -3.5957 
2.04492 1.87891 -3.58398 
2.05664 1.875 -3.57617 
2.06641 1.86816 -3.56445 
2.07813 1.86328 -3.55469 
2.08984 1.8584 -3.54492 
2.10156 1.85547 -3.53906 
2.11523 1.85254 -3.5332 
2.12891 1.84863 -3.52734 
2.14063 1.8457 -3.52148 
2.1543 1.84277 -3.51563 
2.16602 1.83887 -3.50781 
2.17773 1.83398 -3.49805 
2.1875 1.82813 -3.48828 
2.19531 1.82129 -3.47461 
2.20117 1.8125 -3.45703 
2.20508 1.80273 -3.43945 
2.20703 1.79102 -3.41602 
2.20703 1.77734 -3.39063 
2.20508 1.76367 -3.36523 
2.20313 1.75 -3.33789 
2.20117 1.73535 -3.31055 
2.20117 1.72266 -3.28711 
2.20313 1.71191 -3.26563 
2.20508 1.70215 -3.24805 
2.21094 1.69434 -3.23242 
2.21875 1.68945 -3.22266 
2.23047 1.68652 -3.2168 
2.24219 1.68359 -3.21289 
2.25781 1.68359 -3.21289 
2.27344 1.68359 -3.21289 
2.28906 1.68359 -3.21289 
2.30273 1.68359 -3.21289 
2.31641 1.68262 -3.21094 
2.33008 1.68164 -3.20898 
2.3418 1.67871 -3.20313 
2.35156 1.67578 -3.19531 
2.36328 1.67188 -3.18945 
2.36914 1.66699 -3.17969 
2.37695 1.66113 -3.16992 
2.38477 1.65625 -3.1582 
2.39063 1.64941 -3.14648 
2.39648 1.64355 -3.13477 
2.40234 1.6377 -3.125 
2.4082 1.63086 -3.11133 
2.41211 1.625 -3.09961 
2.41992 1.61914 -3.08984 
2.42383 1.61328 -3.07617 
2.42969 1.60645 -3.06445 
2.43359 1.59961 -3.05273 
2.43945 1.59473 -3.04102 
2.44531 1.58789 -3.0293 
2.44922 1.58203 -3.01758 
2.45313 1.5752 -3.00586 
2.45703 1.56836 -2.99219 
2.46094 1.5625 -2.98047 
2.4668 1.55664 -2.9707 
2.4707 1.55078 -2.95703 
2.47656 1.54492 -2.94727 
2.48047 1.54004 -2.9375 
2.48633 1.53418 -2.92773 
2.49219 1.5293 -2.91602 
2.49805 1.52441 -2.9082 
2.50586 1.52148 -2.90234 
2.51563 1.51855 -2.89648 
2.52344 1.51465 -2.89063 
2.5332 1.5127 -2.88477 
2.54297 1.51074 -2.88086 
2.55078 1.50684 -2.875 
2.55859 1.50391 -2.86914 
2.56641 1.5 -2.86133 
2.56836 1.49316 -2.84961 
2.57031 1.48633 -2.83594 
2.57031 1.47949 -2.82227 
2.57031 1.47168 -2.80664 
2.57031 1.46387 -2.79297 
2.57031 1.45703 -2.7793 
2.57422 1.45117 -2.76758 
2.58008 1.44727 -2.75977 
2.58594 1.44238 -2.75195 
2.5918 1.43945 -2.74609 
2.60156 1.4375 -2.74219 
2.61133 1.43555 -2.73828 
2.62109 1.43359 -2.73633 
2.63281 1.43262 -2.73438 
2.64258 1.43164 -2.73242 
2.65625 1.43164 -2.73242 
2.67188 1.43262 -2.73438 
2.68359 1.43262 -2.73438 
2.69922 1.43359 -2.73633 
2.71484 1.43555 -2.73828 
2.72656 1.43555 -2.73828 
2.74023 1.43555 -2.73828 
2.75391 1.43555 -2.73828 
-3.33203 1.83398 -3.53125 
-3.25781 1.80273 -3.46875 
-3.22852 1.7959 -3.45703 
-3.21875 1.79883 -3.46289 
-3.20703 1.80273 -3.46875 
-3.20117 1.80762 -3.48047 
-3.18945 1.81055 -3.48633 
-3.17383 1.81055 -3.48633 
-3.1543 1.80957 -3.48438 
-3.13086 1.80566 -3.47656 
-3.10938 1.80273 -3.46875 
-3.08789 1.79883 -3.46289 
-3.06641 1.79688 -3.45898 
-3.04883 1.7959 -3.45703 
-3.03125 1.79492 -3.45508 
-3.01367 1.79492 -3.45508 
-2.99805 1.79492 -3.45508 
-2.98438 1.79688 -3.45898 
-2.97461 1.7998 -3.46484 
-2.95703 1.7998 -3.46484 
-2.94336 1.80176 -3.4668 
-2.92969 1.80371 -3.4707 
-2.91797 1.80566 -3.47656 
-2.90625 1.80859 -3.48242 
-2.89453 1.81152 -3.48828 
-2.88477 1.81641 -3.49609 
-2.87305 1.81934 -3.50195 
-2.86328 1.82324 -3.50977 
-2.85156 1.82715 -3.51758 
-2.8418 1.83105 -3.52539 
-2.83203 1.83594 -3.5332 
-2.82227 1.83984 -3.54102 
-2.81055 1.84277 -3.54688 
-2.79883 1.84766 -3.55664 
-2.78711 1.85059 -3.5625 
-2.77539 1.85352 -3.56836 
-2.76367 1.85645 -3.57422 
-2.75195 1.86035 -3.58008 
-2.73828 1.8623 -3.58398 
-2.72266 1.86426 -3.58789 
-2.70898 1.86523 -3.5918 
-2.69336 1.86621 -3.59375 
-2.67773 1.86719 -3.5957 
-2.66211 1.86816 -3.59766 
-2.64648 1.87012 -3.59961 
-2.62891 1.87012 -3.59961 
-2.61133 1.86816 -3.59766 
-2.5918 1.86719 -3.5957 
-2.57227 1.86523 -3.5918 
-2.55273 1.86328 -3.58594 
-2.5332 1.86133 -3.58203 
-2.50977 1.85645 -3.57422 
-2.48633 1.85254 -3.56641 
-2.46484 1.84863 -3.55859 
-2.44141 1.84277 -3.54688 
-2.41602 1.83789 -3.53711 
-2.39258 1.83203 -3.52734 
-2.37109 1.82813 -3.51953 
-2.34766 1.82324 -3.50977 
-2.32813 1.82031 -3.50391 
-2.30664 1.81738 -3.49805 
-2.28711 1.81445 -3.49219 
-2.26758 1.81152 -3.48828 
-2.24805 1.80957 -3.48438 
-2.23047 1.80859 -3.48242 
-2.21484 1.80859 -3.48242 
-2.19727 1.80859 -3.48242 
-2.18164 1.80957 -3.48438 
-2.16797 1.81152 -3.48828 
-2.15234 1.81348 -3.49023 
-2.13867 1.81445 -3.49219 
-2.11914 1.81348 -3.49023 
-2.10352 1.81348 -3.49023 
-2.08594 1.81152 -3.48828 
-2.06836 1.81152 -3.48828 
-2.05273 1.81152 -3.48828 
-2.03711 1.81348 -3.49023 
-2.02148 1.81445 -3.49219 
-2.00586 1.81543 -3.49414 
-1.99121 1.81543 -3.49414 
-1.97559 1.81641 -3.49609 
-1.95898 1.81641 -3.49609 
-1.94238 1.81641 -3.49609 
-1.92676 1.81738 -3.49805 
-1.91016 1.81738 -3.49805 
-1.89355 1.81738 -3.49805 
-1.87793 1.81836 -3.5 
-1.86328 1.81934 -3.50195 
-1.84863 1.82129 -3.50586 
-1.83496 1.8252 -3.51367 
-1.82227 1.8291 -3.52148 
-1.80859 1.83105 -3.52539 
-1.79395 1.83301 -3.5293 
-1.77734 1.83301 -3.5293 
-1.75879 1.83203 -3.52734 
-1.74023 1.83008 -3.52344 
-1.7207 1.82715 -3.51758 
-1.70117 1.82324 -3.50977 
-1.68262 1.82129 -3.50586 
-1.66602 1.82129 -3.50586 
-1.65137 1.82324 -3.50977 
-1.6377 1.82715 -3.51758 
-1.625 1.83105 -3.52539 
-1.61035 1.83398 -3.53125 
-1.59668 1.83789 -3.53711 
-1.58105 1.83887 -3.53906 
-1.56543 1.83984 -3.54102 
-1.54883 1.83984 -3.54102 
-1.53125 1.83984 -3.54102 
-1.51563 1.84082 -3.54297 
-1.49902 1.84082 -3.54297 
-1.48242 1.84082 -3.54297 
-1.4668 1.8418 -3.54492 
-1.4502 1.84277 -3.54688 
-1.43359 1.84277 -3.54688 
-1.41699 1.84277 -3.54688 
-1.39844 1.84082 -3.54297 
-1.37988 1.83887 -3.53906 
-1.3623 1.83789 -3.53711 
-1.34473 1.83691 -3.53516 
-1.32813 1.83691 -3.53516 
-1.31055 1.83594 -3.5332 
-1.29395 1.83594 -3.5332 
-1.2793 1.83789 -3.53711 
-1.26367 1.83984 -3.54102 
-1.24805 1.8418 -3.54492 
-1.2334 1.84375 -3.54883 
-1.21777 1.8457 -3.55469 
-1.20117 1.8457 -3.55469 
-1.18359 1.84473 -3.55273 
-1.16602 1.84473 -3.55273 
-1.14941 1.84473 -3.55273 
-1.13281 1.84473 -3.55273 
-1.11816 1.84863 -3.55859 
-1.10059 1.84766 -3.55664 
-1.08398 1.84766 -3.55664 
-1.06641 1.84766 -3.55664 
-1.05664 1.85938 -3.57813 
-1.04004 1.86035 -3.58008 
-1.02441 1.8623 -3.58398 
-1.00781 1.86328 -3.58594 
-0.992188 1.86426 -3.58789 
-0.975098 1.86426 -3.58789 
-0.958008 1.86426 -3.58789 
-0.94043 1.86328 -3.58594 
-0.92334 1.86328 -3.58594 
-0.90625 1.8623 -3.58398 
-0.88916 1.8623 -3.58398 
-0.873047 1.86426 -3.58789 
-0.856934 1.86621 -3.59375 
-0.841797 1.87109 -3.60156 
-0.82666 1.875 -3.60938 
-0.811523 1.87891 -3.61719 
-0.795898 1.88281 -3.62305 
-0.779297 1.88379 -3.625 
-0.762695 1.88477 -3.62695 
-0.745117 1.88477 -3.62695 
-0.727539 1.88379 -3.625 
-0.709961 1.88281 -3.62305 
-0.692871 1.88281 -3.62305 
-0.67627 1.88379 -3.625 
-0.65918 1.88379 -3.625 
-0.64209 1.88477 -3.62695 
-0.625488 1.88574 -3.63086 
-0.608398 1.88574 -3.63086 
-0.591309 1.88574 -3.63086 
-0.57373 1.88574 -3.63086 
-0.556641 1.88477 -3.62695 
-0.539063 1.88379 -3.625 
-0.521484 1.88281 -3.62305 
-0.504395 1.88281 -3.62305 
-0.487305 1.88281 -3.62305 
-0.470459 1.88379 -3.625 
-0.453857 1.88574 -3.63086 
-0.437256 1.8877 -3.63477 
-0.42041 1.88965 -3.63867 
-0.403809 1.89355 -3.64453 
-0.387207 1.89648 -3.65039 
-0.370361 1.89844 -3.6543 
-0.353516 1.90039 -3.6582 
-0.336182 1.90039 -3.6582 
-0.319336 1.90332 -3.66406 
-0.302734 1.90723 -3.67188 
-0.285889 1.91113 -3.67969 
-0.269287 1.91699 -3.68945 
-0.252441 1.92188 -3.69922 
-0.235596 1.92578 -3.70898 
-0.218628 1.93164 -3.71875 
-0.201416 1.93555 -3.72656 
-0.18396 1.9375 -3.73047 
-0.166504 1.94043 -3.73438 
-0.148926 1.94141 -3.73633 
-0.131226 1.94043 -3.73438 
-0.113586 1.94043 -3.73438 
-0.0958252 1.93945 -3.73242 
-0.078125 1.9375 -3.73047 
-0.0604553 1.93652 -3.72852 
-0.0428162 1.93652 -3.72852 
-0.025177 1.93652 -3.72852 
-0.00754166 1.9375 -3.73047 
0.0101166 1.93945 -3.73242 
0.0277863 1.94043 -3.73438 
0.0454712 1.94141 -3.73633 
0.0631714 1.94141 -3.73633 
0.0808105 1.94141 -3.73633 
0.0984497 1.94043 -3.73438 
0.116028 1.9375 -3.73047 
0.133423 1.93555 -3.72656 
0.151001 1.93359 -3.72266 
0.168335 1.93164 -3.71875 
0.185913 1.93066 -3.7168 
0.203491 1.93066 -3.7168 
0.221069 1.93066 -3.7168 
0.238892 1.93262 -3.7207 
0.256836 1.93457 -3.72461 
0.274902 1.9375 -3.73047 
0.293213 1.94238 -3.73828 
0.311279 1.94531 -3.74414 
0.328857 1.94434 -3.74219 
0.346924 1.94629 -3.74805 
0.364746 1.94727 -3.75 
0.383545 1.95215 -3.75781 
0.401123 1.95215 -3.75781 
0.420654 1.95898 -3.77148 
0.437988 1.95703 -3.76758 
0.457031 1.96289 -3.77734 
0.474121 1.95898 -3.77148 
0.491699 1.95801 -3.76953 
0.511719 1.9668 -3.78711 
1.32715 2.03516 -3.91992 
1.34375 2.0332 -3.91602 
1.35742 2.02539 -3.90234 
1.37305 2.02148 -3.89063 
1.38574 2.01367 -3.87695 
1.39844 2.00391 -3.85938 
1.40918 1.99414 -3.83984 
1.41895 1.98242 -3.81641 
1.42773 1.96973 -3.79297 
1.43555 1.95703 -3.76758 
1.44531 1.94531 -3.74414 
1.45605 1.93555 -3.72656 
1.46875 1.92969 -3.71484 
1.48242 1.9248 -3.70508 
1.50195 1.92773 -3.71094 
1.52344 1.93262 -3.7207 
1.5498 1.94336 -3.74023 
1.57617 1.9541 -3.76172 
1.60156 1.96387 -3.7793 
1.62402 1.96875 -3.79102 
1.64258 1.96973 -3.79297 
1.65527 1.96387 -3.7793 
1.66602 1.95508 -3.76367 
1.67285 1.94238 -3.73828 
1.67773 1.92773 -3.71094 
1.68359 1.91406 -3.68555 
1.69238 1.90527 -3.66602 
1.70508 1.89941 -3.65625 
1.7207 1.89746 -3.65234 
1.73828 1.89746 -3.65234 
1.75488 1.89746 -3.65234 
1.77246 1.89746 -3.65234 
1.78906 1.89648 -3.65039 
1.80371 1.89453 -3.64648 
1.81836 1.89063 -3.64063 
1.83301 1.88867 -3.63672 
1.84766 1.88574 -3.63086 
1.86328 1.88477 -3.62695 
1.87988 1.88379 -3.625 
1.89648 1.88379 -3.625 
1.91309 1.88281 -3.62305 
1.92871 1.88184 -3.62109 
1.94336 1.87891 -3.61719 
1.95898 1.87695 -3.61328 
1.97266 1.87402 -3.60742 
1.9873 1.87207 -3.60352 
2 1.86816 -3.59766 
2.01563 1.86621 -3.59375 
2.02734 1.8623 -3.58398 
2.03906 1.85742 -3.57617 
2.05273 1.85352 -3.56836 
2.0625 1.84863 -3.55859 
2.07422 1.84375 -3.54883 
2.08594 1.83984 -3.54102 
2.09961 1.83691 -3.53516 
2.11328 1.83301 -3.5293 
2.12695 1.83105 -3.52539 
2.14063 1.82813 -3.51953 
2.1543 1.82617 -3.51563 
2.16602 1.82129 -3.50586 
2.17773 1.81738 -3.49805 
2.1875 1.81152 -3.48828 
2.19531 1.80566 -3.47656 
2.20313 1.79785 -3.46094 
2.20703 1.78809 -3.44336 
2.21094 1.77734 -3.42188 
2.21289 1.76563 -3.40039 
2.21289 1.75293 -3.375 
2.21094 1.74023 -3.34961 
2.21094 1.72754 -3.32617 
2.21094 1.71582 -3.30273 
2.21289 1.7041 -3.28125 
2.21484 1.69434 -3.26172 
2.2207 1.68652 -3.24805 
2.22852 1.68066 -3.23438 
2.23633 1.67676 -3.22656 
2.25 1.67383 -3.22266 
2.26172 1.67188 -3.21875 
2.27734 1.67188 -3.21875 
2.29102 1.6709 -3.2168 
2.30664 1.6709 -3.2168 
2.31836 1.66895 -3.21289 
2.33008 1.66699 -3.20898 
2.3418 1.66309 -3.20313 
2.35156 1.66016 -3.19531 
2.36133 1.65625 -3.1875 
2.36914 1.65039 -3.17773 
2.375 1.64551 -3.16797 
2.38086 1.63867 -3.1543 
2.38672 1.63281 -3.14258 
2.39258 1.62598 -3.13086 
2.39844 1.62109 -3.11914 
2.4043 1.61426 -3.10742 
2.41211 1.60938 -3.09766 
2.41797 1.60352 -3.08789 
2.42188 1.59766 -3.07422 
2.42969 1.5918 -3.06445 
2.43359 1.58594 -3.05273 
2.4375 1.5791 -3.03906 
2.44141 1.57129 -3.02539 
2.44531 1.56543 -3.01367 
2.44922 1.55859 -3 
2.45313 1.55273 -2.98828 
2.45703 1.5459 -2.97656 
2.46094 1.54004 -2.96289 
2.4668 1.53418 -2.95313 
