ply
format ascii 1.0
comment pointcloud saved from Realsense Viewer
element vertex 2176
property float32 x
property float32 y
property float32 z
property uchar red
property uchar green
property uchar blue
end_header
-0.269531 0.356201 -0.898438 
121 117 108 
-0.265137 0.356201 -0.898438 
123 119 110 
-0.260986 0.356201 -0.898438 
122 118 109 
-0.253906 0.352051 -0.888184 
119 117 109 
-0.250732 0.35376 -0.89209 
126 124 116 
-0.25 0.358643 -0.904297 
121 117 110 
-0.249634 0.364258 -0.918945 
122 115 109 
-0.250244 0.371582 -0.9375 
116 108 105 
-0.250488 0.378906 -0.955566 
121 114 108 
-0.250244 0.385498 -0.972168 
123 116 110 
-0.250244 0.392822 -0.990723 
119 115 108 
-0.251709 0.402588 -1.01563 
120 116 109 
-0.250488 0.408203 -1.0293 
118 114 107 
-0.249146 0.414063 -1.04395 
121 116 112 
-0.247559 0.419678 -1.05859 
122 117 113 
-0.254639 0.440918 -1.1123 
120 115 111 
-0.250732 0.443359 -1.11816 
126 121 117 
-0.24646 0.444824 -1.12207 
125 117 114 
-0.241577 0.445801 -1.12402 
130 122 121 
-0.236328 0.445801 -1.12402 
129 124 122 
-0.230957 0.445801 -1.12402 
129 123 125 
-0.22522 0.444824 -1.12207 
143 137 139 
-0.219482 0.444092 -1.12012 
135 129 133 
-0.216187 0.448242 -1.12988 
127 121 125 
-0.212769 0.452393 -1.14063 
140 134 140 
-0.208496 0.454834 -1.14648 
145 140 148 
-0.205933 0.461182 -1.16309 
144 138 144 
-0.214355 0.49292 -1.24316 
165 158 167 
-0.210083 0.49707 -1.25391 
193 187 193 
-0.204834 0.498779 -1.25781 
239 238 238 
-0.197998 0.496338 -1.25195 
253 254 250 
-0.183838 0.475098 -1.19824 
252 255 249 
-0.17627 0.470215 -1.18555 
252 255 251 
-0.166504 0.45874 -1.15723 
252 255 251 
-0.157349 0.448242 -1.12988 
254 254 254 
-0.149536 0.440918 -1.1123 
199 193 195 
-0.142334 0.435059 -1.09766 
140 134 136 
-0.134399 0.42627 -1.0752 
134 126 123 
-0.127808 0.421387 -1.0625 
128 124 117 
-0.121826 0.417969 -1.05469 
121 119 111 
-0.116211 0.415527 -1.04785 
122 120 110 
-0.110107 0.411621 -1.03809 
125 123 113 
-0.105835 0.414063 -1.04395 
125 123 113 
-0.101501 0.416504 -1.0498 
124 122 112 
-0.0969238 0.417969 -1.05469 
126 124 114 
-0.0922852 0.419678 -1.05859 
126 124 116 
-0.0874634 0.42041 -1.06055 
132 128 121 
-0.0823975 0.42041 -1.06055 
133 129 122 
-0.0770874 0.418945 -1.05664 
136 132 125 
-0.0718384 0.417236 -1.05176 
136 132 125 
-0.0664673 0.414795 -1.0459 
136 132 123 
-0.0611572 0.412354 -1.04004 
135 128 120 
-0.0541077 0.396973 -1.00098 
136 129 121 
-0.0493774 0.396973 -1.00098 
137 130 124 
-0.0447388 0.397705 -1.00293 
137 133 126 
-0.0400696 0.398438 -1.00488 
134 130 123 
-0.0353088 0.398438 -1.00488 
136 132 125 
-0.0305634 0.398438 -1.00488 
134 130 123 
-0.0258026 0.398438 -1.00488 
122 123 114 
-0.0210419 0.398438 -1.00488 
121 118 113 
-0.0162964 0.398438 -1.00488 
132 132 128 
-0.0115204 0.397705 -1.00293 
134 134 130 
-0.00675964 0.396973 -1.00098 
134 134 130 
-0.00202179 0.396973 -1.00098 
136 136 132 
0.00271225 0.396973 -1.00098 
140 140 136 
0.00746155 0.397705 -1.00293 
143 144 138 
0.0122299 0.398438 -1.00488 
142 143 139 
0.0170135 0.399414 -1.00684 
144 145 141 
0.0218353 0.400146 -1.00879 
149 150 146 
0.0266571 0.400879 -1.01074 
149 150 146 
0.0314331 0.400879 -1.01074 
151 152 148 
0.0362854 0.401855 -1.0127 
153 153 153 
0.0411072 0.401855 -1.0127 
151 154 153 
0.0458984 0.401855 -1.0127 
159 162 161 
0.0506897 0.401855 -1.0127 
160 163 164 
0.055481 0.401855 -1.0127 
163 166 167 
0.0601501 0.400879 -1.01074 
164 167 168 
0.0649414 0.400879 -1.01074 
167 170 171 
0.0695801 0.400146 -1.00879 
169 172 173 
0.0740356 0.398438 -1.00488 
166 169 170 
0.0786133 0.397705 -1.00293 
163 169 169 
0.0831909 0.396973 -1.00098 
165 171 169 
0.0877686 0.395996 -0.999023 
163 169 169 
0.0922852 0.395264 -0.99707 
163 169 169 
0.0970459 0.395264 -0.99707 
161 167 167 
0.101501 0.394287 -0.995117 
162 168 168 
0.106262 0.394287 -0.995117 
162 168 168 
0.110962 0.394287 -0.995117 
161 167 167 
0.115662 0.394287 -0.995117 
163 169 169 
0.120361 0.394287 -0.995117 
164 170 170 
0.125 0.394287 -0.995117 
164 170 172 
0.129761 0.394287 -0.995117 
165 171 173 
0.134155 0.393555 -0.992676 
165 171 173 
0.13855 0.392822 -0.990723 
165 171 173 
0.1427 0.391113 -0.986816 
170 176 178 
0.147095 0.390381 -0.984375 
171 177 179 
0.151001 0.388672 -0.980469 
175 181 183 
0.155029 0.386963 -0.976563 
177 183 185 
0.158936 0.385498 -0.972168 
180 188 189 
0.162964 0.383789 -0.968262 
183 190 194 
0.166748 0.38208 -0.963867 
188 195 199 
0.170654 0.380615 -0.959961 
190 197 201 
0.174438 0.378906 -0.955566 
192 199 203 
0.178101 0.377197 -0.95166 
197 204 208 
0.181519 0.374756 -0.945313 
201 211 216 
0.184692 0.372314 -0.939453 
203 212 222 
0.187988 0.369873 -0.933105 
211 220 230 
0.188965 0.363525 -0.916504 
213 226 235 
0.192383 0.361816 -0.912598 
218 231 240 
0.199829 0.367432 -0.927246 
212 226 232 
0.204224 0.367432 -0.927246 
216 228 234 
0.208618 0.367432 -0.927246 
219 228 238 
0.212524 0.366699 -0.924805 
219 229 236 
0.216431 0.365967 -0.922852 
221 228 236 
0.219849 0.364258 -0.918945 
225 232 238 
0.223145 0.362549 -0.914551 
234 236 244 
0.221924 0.35376 -0.89209 
229 231 237 
0.226074 0.35376 -0.89209 
232 237 242 
0.23291 0.357666 -0.902344 
228 233 238 
0.237183 0.357666 -0.902344 
231 233 239 
0.242065 0.358643 -0.904297 
224 229 238 
0.247437 0.360107 -0.908691 
229 234 241 
0.253418 0.362549 -0.914551 
228 230 236 
0.259521 0.36499 -0.920898 
224 227 230 
0.265625 0.367432 -0.927246 
224 227 230 
0.272949 0.371582 -0.9375 
222 225 226 
0.281006 0.376465 -0.949707 
223 226 229 
0.289307 0.381348 -0.961914 
218 221 224 
0.296875 0.385498 -0.972168 
211 217 219 
0.304688 0.389404 -0.982422 
213 219 221 
0.312012 0.392822 -0.990723 
211 217 219 
0.317871 0.394287 -0.995117 
204 210 212 
0.319336 0.390381 -0.984375 
208 211 214 
0.322021 0.387939 -0.978516 
208 211 212 
0.324463 0.385498 -0.972168 
205 208 209 
0.327148 0.383057 -0.966309 
205 208 209 
0.328125 0.378906 -0.955566 
202 205 206 
0.329834 0.375732 -0.947754 
202 205 206 
0.331299 0.372314 -0.939453 
204 204 206 
0.333496 0.369873 -0.933105 
200 200 202 
0.337158 0.369141 -0.931152 
197 200 201 
0.34082 0.368408 -0.929199 
197 200 201 
0.345215 0.368408 -0.929199 
198 201 202 
0.350586 0.369141 -0.931152 
194 197 198 
0.355713 0.369873 -0.933105 
197 200 201 
0.361572 0.371582 -0.9375 
194 197 198 
0.367676 0.373291 -0.941406 
194 197 198 
0.37793 0.378906 -0.955566 
198 201 202 
0.380859 0.377197 -0.95166 
194 197 198 
0.386963 0.378906 -0.955566 
194 197 200 
0.392334 0.379639 -0.958008 
197 200 201 
0.398438 0.381348 -0.961914 
198 201 202 
0.404785 0.383057 -0.966309 
198 201 202 
0.411133 0.384521 -0.970215 
201 204 205 
0.41748 0.38623 -0.974121 
201 204 205 
0.422852 0.386963 -0.976563 
199 205 205 
0.429443 0.388672 -0.980469 
199 205 205 
0.435791 0.390381 -0.984375 
200 206 206 
0.441406 0.391113 -0.986816 
203 209 211 
0.447998 0.392822 -0.990723 
204 209 214 
0.453613 0.393555 -0.992676 
207 212 217 
0.459229 0.394287 -0.995117 
211 213 219 
0.464844 0.395264 -0.99707 
212 214 220 
0.471436 0.396973 -1.00098 
210 215 220 
0.478271 0.398438 -1.00488 
212 217 222 
0.483887 0.399414 -1.00684 
216 219 222 
0.489746 0.400146 -1.00879 
216 222 224 
0.494629 0.400146 -1.00879 
218 223 228 
0.497314 0.398438 -1.00488 
218 223 228 
0.497803 0.395264 -0.99707 
220 225 232 
0.497559 0.391113 -0.986816 
220 225 232 
0.496826 0.386963 -0.976563 
220 225 232 
0.496094 0.383057 -0.966309 
222 227 236 
0.497559 0.380615 -0.959961 
227 232 239 
0.5 0.378906 -0.955566 
221 228 234 
0.503418 0.378174 -0.953613 
221 228 234 
0.503418 0.374756 -0.945313 
231 233 243 
0.508789 0.375732 -0.947754 
227 228 241 
0.515625 0.377197 -0.95166 
228 227 238 
0.52832 0.383057 -0.966309 
226 231 240 
0.533691 0.383789 -0.968262 
224 230 243 
0.539551 0.384521 -0.970215 
223 230 238 
0.54541 0.385498 -0.972168 
224 229 238 
0.549805 0.385498 -0.972168 
224 226 236 
0.554688 0.385498 -0.972168 
214 224 229 
0.559082 0.385498 -0.972168 
219 226 230 
0.561523 0.383789 -0.968262 
219 221 227 
0.5625 0.381348 -0.961914 
218 224 226 
0.562988 0.378906 -0.955566 
212 219 223 
0.560547 0.374023 -0.943359 
211 221 226 
0.558594 0.369873 -0.933105 
211 218 224 
0.558105 0.366699 -0.924805 
210 217 221 
0.558594 0.364258 -0.918945 
209 216 220 
0.560547 0.362549 -0.914551 
211 216 221 
0.564941 0.362549 -0.914551 
211 214 217 
0.569336 0.362549 -0.914551 
212 214 220 
0.576172 0.364258 -0.918945 
209 208 215 
0.580566 0.364258 -0.918945 
209 209 213 
0.571777 0.356201 -0.898438 
204 204 208 
0.574707 0.355225 -0.895996 
204 203 205 
0.589355 0.361816 -0.912598 
202 201 203 
0.579102 0.352783 -0.890137 
201 200 200 
0.599609 0.362549 -0.914551 
201 200 200 
0.591797 0.355225 -0.895996 
201 200 200 
0.597168 0.356201 -0.898438 
196 196 192 
0.600098 0.355225 -0.895996 
196 195 195 
0.603027 0.354492 -0.894043 
196 195 195 
0.604492 0.352783 -0.890137 
196 195 195 
0.605957 0.351318 -0.885742 
196 195 195 
0.607422 0.349609 -0.881836 
196 195 195 
0.609863 0.348877 -0.879883 
196 195 195 
0.614258 0.348877 -0.879883 
196 195 195 
0.616699 0.3479 -0.877441 
196 195 195 
0.621094 0.3479 -0.877441 
196 195 195 
0.625 0.3479 -0.877441 
196 195 195 
0.630859 0.348877 -0.879883 
196 195 195 
0.634766 0.348877 -0.879883 
196 195 195 
0.640625 0.349609 -0.881836 
196 195 195 
0.646484 0.350342 -0.883789 
196 195 195 
0.65332 0.352051 -0.888184 
196 195 195 
0.65918 0.352783 -0.890137 
196 195 195 
0.665039 0.35376 -0.89209 
196 195 195 
0.670898 0.354492 -0.894043 
196 195 195 
0.67627 0.355225 -0.895996 
196 195 195 
0.680664 0.355225 -0.895996 
196 195 195 
0.683594 0.354492 -0.894043 
196 195 195 
0.686035 0.35376 -0.89209 
196 195 195 
0.687012 0.352051 -0.888184 
196 195 195 
0.686523 0.349609 -0.881836 
196 195 195 
0.686035 0.347168 -0.875488 
196 195 195 
0.685059 0.344727 -0.869629 
196 195 195 
0.67627 0.338135 -0.853027 
196 195 195 
0.675293 0.335693 -0.84668 
196 195 195 
0.675781 0.333984 -0.842773 
196 195 195 
0.685059 0.336426 -0.849121 
196 195 195 
0.6875 0.335693 -0.84668 
196 195 195 
0.691406 0.335693 -0.84668 
196 195 195 
0.693848 0.334961 -0.844727 
196 195 195 
0.697754 0.334961 -0.844727 
196 195 195 
0.70166 0.334961 -0.844727 
196 195 195 
0.705566 0.334961 -0.844727 
196 195 195 
0.709473 0.334961 -0.844727 
196 195 195 
0.713379 0.334961 -0.844727 
196 195 195 
0.717773 0.334961 -0.844727 
196 195 195 
0.719727 0.333984 -0.842773 
196 195 195 
0.739746 0.341309 -0.861328 
196 195 195 
0.742188 0.340576 -0.859375 
196 195 195 
0.742676 0.338867 -0.85498 
196 195 195 
0.743164 0.337402 -0.851074 
196 195 195 
0.743164 0.335693 -0.84668 
196 195 195 
0.745605 0.334961 -0.844727 
196 195 195 
0.747559 0.333984 -0.842773 
196 195 195 
0.73877 0.328369 -0.828125 
196 195 195 
0.737305 0.325928 -0.822266 
196 195 195 
0.741211 0.325928 -0.822266 
196 195 195 
0.745117 0.325928 -0.822266 
196 195 195 
0.749023 0.325928 -0.822266 
196 195 195 
0.75293 0.325928 -0.822266 
196 195 195 
0.76416 0.329102 -0.830566 
196 195 195 
0.762695 0.32666 -0.824219 
196 195 195 
0.764648 0.325928 -0.822266 
196 195 195 
0.768555 0.325928 -0.822266 
196 195 195 
0.770508 0.325195 -0.820313 
196 195 195 
0.772461 0.324219 -0.817871 
196 195 195 
0.776367 0.324219 -0.817871 
196 195 195 
0.77832 0.323486 -0.815918 
196 195 195 
0.779785 0.322754 -0.813965 
196 195 195 
0.783691 0.322754 -0.813965 
196 195 195 
0.763672 0.312988 -0.789063 
196 195 195 
0.767578 0.312988 -0.789063 
196 195 195 
0.791504 0.321045 -0.810059 
196 195 195 
0.79541 0.321045 -0.810059 
196 195 195 
0.796875 0.320313 -0.807617 
196 195 195 
0.800781 0.320313 -0.807617 
196 195 195 
0.790527 0.314453 -0.793457 
196 195 195 
0.79834 0.316162 -0.797363 
196 195 195 
0.804199 0.316895 -0.799316 
196 195 195 
-0.681152 0.360596 -0.920898 
118 102 107 
-0.673828 0.359131 -0.916504 
117 105 103 
-0.666504 0.357422 -0.912598 
120 106 102 
-0.662109 0.357422 -0.912598 
119 108 103 
-0.661133 0.359131 -0.916504 
123 106 106 
-0.658203 0.359863 -0.918945 
116 106 104 
-0.659668 0.363037 -0.927246 
101 92 95 
-0.659668 0.365479 -0.933105 
118 107 102 
-0.655273 0.365479 -0.933105 
127 115 113 
-0.64502 0.362305 -0.924805 
131 121 121 
-0.63916 0.361572 -0.922852 
133 130 127 
-0.633301 0.360596 -0.920898 
142 137 133 
-0.62793 0.359863 -0.918945 
139 134 132 
-0.62207 0.359131 -0.916504 
156 152 155 
-0.625977 0.364014 -0.929199 
155 155 157 
-0.624512 0.365479 -0.933105 
170 166 167 
-0.622559 0.367188 -0.9375 
176 175 177 
-0.612793 0.364014 -0.929199 
209 209 213 
-0.608398 0.364014 -0.929199 
236 236 238 
-0.604004 0.364014 -0.929199 
252 255 254 
-0.599609 0.364014 -0.929199 
250 255 254 
-0.595215 0.364014 -0.929199 
249 255 251 
-0.592285 0.364746 -0.931152 
250 255 251 
-0.588867 0.365479 -0.933105 
250 255 251 
-0.589844 0.368652 -0.941406 
250 255 251 
-0.586426 0.369629 -0.943359 
252 255 251 
-0.582031 0.369629 -0.943359 
252 255 251 
-0.57373 0.367188 -0.9375 
252 255 251 
-0.566895 0.365479 -0.933105 
254 255 249 
-0.535156 0.3479 -0.888184 
255 255 247 
-0.529785 0.346924 -0.885742 
246 237 228 
-0.524414 0.346191 -0.883789 
230 215 203 
-0.519043 0.345459 -0.881836 
209 187 177 
-0.513672 0.344482 -0.879883 
189 168 155 
-0.506836 0.343018 -0.875488 
181 154 146 
-0.500488 0.341309 -0.871582 
157 136 119 
-0.495361 0.340576 -0.869629 
151 125 114 
-0.489014 0.338867 -0.865234 
139 121 112 
-0.483643 0.338135 -0.863281 
144 130 122 
-0.478516 0.337402 -0.861328 
141 130 121 
-0.472168 0.335693 -0.856934 
132 123 116 
-0.456787 0.327637 -0.836426 
130 123 117 
-0.446289 0.322754 -0.824219 
121 117 110 
-0.430176 0.313965 -0.801758 
119 115 108 
-0.420898 0.310059 -0.791504 
120 115 111 
-0.415039 0.30835 -0.787109 
121 117 110 
-0.410156 0.307617 -0.785156 
118 115 110 
-0.408691 0.309082 -0.789063 
114 111 108 
-0.416504 0.318115 -0.812012 
117 114 109 
-0.427246 0.329346 -0.84082 
118 114 107 
-0.42749 0.33252 -0.849121 
117 115 107 
-0.42749 0.335693 -0.856934 
115 112 107 
-0.424561 0.336426 -0.859375 
114 109 105 
-0.42041 0.336426 -0.859375 
116 111 107 
-0.41333 0.334229 -0.853027 
113 109 102 
-0.40625 0.331787 -0.84668 
114 112 104 
-0.398438 0.328369 -0.838379 
111 109 101 
-0.390625 0.325195 -0.830566 
113 109 102 
-0.384766 0.32373 -0.826172 
115 111 104 
-0.376953 0.320313 -0.817871 
114 110 103 
-0.372314 0.31958 -0.815918 
112 110 102 
-0.368408 0.31958 -0.815918 
112 110 100 
-0.365479 0.320313 -0.817871 
115 113 103 
-0.363281 0.322021 -0.822266 
116 109 101 
-0.360352 0.322754 -0.824219 
118 111 103 
-0.357422 0.32373 -0.826172 
112 108 101 
-0.354248 0.324463 -0.828125 
113 109 100 
-0.351318 0.325195 -0.830566 
110 111 102 
-0.348145 0.326172 -0.83252 
111 112 103 
-0.345947 0.327637 -0.836426 
109 105 98 
-0.344482 0.330078 -0.842773 
118 111 105 
-0.343018 0.33252 -0.849121 
116 109 103 
-0.342285 0.335693 -0.856934 
118 111 103 
-0.340576 0.338135 -0.863281 
117 110 102 
-0.338135 0.339844 -0.867188 
118 111 103 
-0.336426 0.342285 -0.873535 
116 109 101 
-0.332275 0.342285 -0.873535 
113 109 100 
-0.329102 0.343018 -0.875488 
116 112 101 
-0.323975 0.342285 -0.873535 
120 113 105 
-0.319092 0.341309 -0.871582 
117 110 102 
-0.314209 0.340576 -0.869629 
116 109 101 
-0.30957 0.339844 -0.867188 
116 109 101 
-0.304688 0.338867 -0.865234 
120 113 103 
-0.309082 0.348633 -0.890137 
115 113 101 
-0.306396 0.350342 -0.894043 
115 111 100 
-0.302734 0.351074 -0.895996 
114 110 99 
-0.299316 0.351807 -0.898438 
117 115 103 
-0.297119 0.354248 -0.904297 
119 115 106 
-0.293945 0.355957 -0.908691 
121 117 108 
-0.286377 0.351807 -0.898438 
119 115 108 
-0.282959 0.352539 -0.900391 
125 121 114 
-0.279297 0.353516 -0.902344 
122 118 111 
-0.274414 0.352539 -0.900391 
123 119 110 
-0.269531 0.351807 -0.898438 
120 118 108 
-0.265137 0.351807 -0.898438 
120 118 108 
-0.260986 0.351807 -0.898438 
123 119 110 
-0.255615 0.350342 -0.894043 
120 116 107 
-0.25293 0.352539 -0.900391 
116 112 103 
-0.251709 0.356689 -0.910645 
114 110 103 
-0.251709 0.363037 -0.927246 
118 114 105 
-0.252441 0.370361 -0.945313 
120 116 107 
-0.252197 0.376709 -0.961914 
121 117 110 
-0.251953 0.383301 -0.978516 
119 115 108 
-0.250977 0.388916 -0.992676 
117 115 107 
-0.250244 0.395264 -1.00879 
121 117 110 
-0.249023 0.400879 -1.02344 
121 117 110 
-0.247192 0.405762 -1.03613 
121 117 110 
-0.245605 0.411377 -1.0498 
120 116 109 
-0.243408 0.41626 -1.0625 
120 116 109 
-0.249512 0.435547 -1.1123 
121 117 110 
-0.245117 0.437256 -1.11621 
127 123 116 
-0.240356 0.437988 -1.11816 
123 119 112 
-0.235474 0.438721 -1.12012 
122 120 112 
-0.230591 0.439697 -1.12207 
125 122 117 
-0.225708 0.44043 -1.12402 
125 120 116 
-0.220703 0.441162 -1.12598 
130 125 121 
-0.217041 0.44458 -1.13477 
130 125 123 
-0.213867 0.449219 -1.14648 
129 124 122 
-0.209961 0.452637 -1.15527 
136 131 129 
-0.207031 0.458252 -1.16895 
136 131 129 
-0.215698 0.490479 -1.25195 
140 134 136 
-0.211914 0.495117 -1.26367 
143 134 137 
-0.206177 0.496094 -1.26563 
144 135 142 
-0.199219 0.493652 -1.25977 
139 133 139 
-0.183472 0.46875 -1.19629 
139 135 140 
-0.17627 0.4646 -1.18555 
143 139 142 
-0.167114 0.454834 -1.16113 
150 144 148 
-0.158447 0.446045 -1.13867 
142 136 138 
-0.150391 0.437988 -1.11816 
136 136 132 
-0.1427 0.430664 -1.09961 
135 130 126 
-0.133911 0.419434 -1.07031 
134 130 123 
-0.126831 0.413086 -1.05469 
134 130 121 
-0.120178 0.407471 -1.04004 
134 127 119 
-0.117798 0.41626 -1.0625 
129 125 116 
-0.112122 0.413818 -1.05664 
132 128 121 
-0.1073 0.414551 -1.05859 
132 128 121 
-0.102661 0.41626 -1.0625 
137 133 124 
-0.0978394 0.416992 -1.06445 
134 130 121 
-0.0930176 0.417969 -1.06641 
138 131 123 
-0.0879517 0.417969 -1.06641 
134 130 121 
-0.0827637 0.416992 -1.06445 
134 130 121 
-0.0773926 0.415527 -1.06055 
128 124 115 
-0.0720825 0.413818 -1.05664 
133 129 120 
-0.0645142 0.397705 -1.01563 
136 132 123 
-0.0596924 0.397705 -1.01563 
137 133 124 
-0.0549927 0.398438 -1.01758 
136 132 123 
-0.050293 0.399414 -1.01953 
136 129 121 
-0.0454712 0.399414 -1.01953 
132 125 119 
-0.0407104 0.400146 -1.02148 
130 126 119 
-0.0359497 0.400879 -1.02344 
129 124 120 
-0.0311279 0.400879 -1.02344 
134 131 126 
-0.0262756 0.400879 -1.02344 
140 137 132 
-0.0214386 0.400879 -1.02344 
136 136 130 
-0.0165558 0.400146 -1.02148 
139 139 133 
-0.0117035 0.399414 -1.01953 
141 141 135 
-0.00687027 0.398438 -1.01758 
138 138 134 
-0.00205231 0.397705 -1.01563 
145 144 144 
0.0027504 0.397705 -1.01563 
144 144 144 
0.00755692 0.397705 -1.01563 
147 147 147 
0.0123596 0.397705 -1.01563 
150 150 150 
0.0171661 0.397705 -1.01563 
154 155 151 
0.0220032 0.398438 -1.01758 
158 161 160 
0.026825 0.398438 -1.01758 
167 170 171 
0.0316162 0.398438 -1.01758 
171 171 173 
0.036438 0.398438 -1.01758 
172 172 174 
0.0411682 0.397705 -1.01563 
170 176 176 
0.04599 0.397705 -1.01563 
174 182 181 
0.0507813 0.397705 -1.01563 
173 181 182 
0.055481 0.396973 -1.0127 
174 182 183 
0.0602722 0.396973 -1.0127 
176 184 185 
0.0650635 0.396973 -1.0127 
174 182 183 
0.0697021 0.39624 -1.01074 
178 186 187 
0.0743408 0.395264 -1.00879 
176 184 185 
0.0789795 0.394531 -1.00684 
178 184 186 
0.0835571 0.393799 -1.00488 
174 180 180 
0.0883179 0.393799 -1.00488 
174 180 180 
0.0928955 0.392822 -1.00293 
170 176 176 
0.0974121 0.39209 -1.00098 
170 178 177 
0.102173 0.39209 -1.00098 
169 177 176 
0.106873 0.39209 -1.00098 
170 176 178 
0.111633 0.39209 -1.00098 
170 176 178 
0.116394 0.39209 -1.00098 
170 176 178 
0.121094 0.39209 -1.00098 
169 175 175 
0.125854 0.39209 -1.00098 
170 176 178 
0.130493 0.39209 -1.00098 
172 178 180 
0.13501 0.391357 -0.999023 
172 178 180 
0.139404 0.390625 -0.99707 
172 178 180 
0.143921 0.389648 -0.995117 
177 183 185 
0.147949 0.388184 -0.990723 
176 182 184 
0.152344 0.387207 -0.98877 
180 188 189 
0.156372 0.385742 -0.984375 
180 188 189 
0.1604 0.384033 -0.980469 
184 192 193 
0.164307 0.382568 -0.976563 
188 196 197 
0.168213 0.380859 -0.972168 
192 200 201 
0.172485 0.380127 -0.970215 
197 205 206 
0.17627 0.378418 -0.966309 
199 207 208 
0.179688 0.375977 -0.959961 
204 212 213 
0.183105 0.373535 -0.953613 
202 212 215 
0.185913 0.370361 -0.945313 
202 212 215 
0.189209 0.36792 -0.939453 
205 212 216 
0.192383 0.365479 -0.933105 
211 216 221 
0.193237 0.359131 -0.916504 
212 217 222 
0.200684 0.364746 -0.931152 
216 223 227 
0.2052 0.364746 -0.931152 
219 226 230 
0.209106 0.364014 -0.929199 
221 226 231 
0.213501 0.364014 -0.929199 
222 227 232 
0.217407 0.363037 -0.927246 
227 234 238 
0.221313 0.362305 -0.924805 
228 233 240 
0.224609 0.360596 -0.920898 
233 238 243 
0.223877 0.352539 -0.900391 
234 239 244 
0.230835 0.356689 -0.910645 
230 237 241 
0.235107 0.356689 -0.910645 
233 238 245 
0.23938 0.356689 -0.910645 
235 237 243 
0.244263 0.357422 -0.912598 
232 237 242 
0.249634 0.359131 -0.916504 
231 238 244 
0.255127 0.360596 -0.920898 
225 230 237 
0.26123 0.363037 -0.927246 
228 235 239 
0.268066 0.366455 -0.935059 
222 227 232 
0.274658 0.369629 -0.943359 
220 225 230 
0.282959 0.374512 -0.955566 
219 226 230 
0.291748 0.380127 -0.970215 
216 223 227 
0.300049 0.384766 -0.982422 
216 224 225 
0.309326 0.390625 -0.99707 
213 219 221 
0.317871 0.395264 -1.00879 
209 215 217 
0.325195 0.398438 -1.01758 
206 214 213 
0.325439 0.392822 -1.00293 
210 216 216 
0.328125 0.390625 -0.99707 
203 211 212 
0.331543 0.388916 -0.992676 
204 210 210 
0.334717 0.387207 -0.98877 
205 211 211 
0.335205 0.382568 -0.976563 
200 206 208 
0.336182 0.378418 -0.966309 
198 204 206 
0.337891 0.375244 -0.958008 
197 203 203 
0.339355 0.37207 -0.949707 
198 204 204 
0.342529 0.370361 -0.945313 
199 202 203 
0.345459 0.368652 -0.941406 
198 201 202 
0.349854 0.368652 -0.941406 
198 201 202 
0.355225 0.369629 -0.943359 
195 198 199 
0.360352 0.370361 -0.945313 
195 198 199 
0.368896 0.374512 -0.955566 
197 200 201 
0.375 0.375977 -0.959961 
197 200 201 
0.381104 0.377686 -0.963867 
198 201 202 
0.388184 0.380127 -0.970215 
197 200 201 
0.394287 0.381592 -0.974121 
197 200 201 
0.400635 0.383301 -0.978516 
199 202 203 
0.406982 0.384766 -0.982422 
199 202 203 
0.412598 0.385742 -0.984375 
200 203 204 
0.418945 0.387207 -0.98877 
199 202 203 
0.425293 0.388916 -0.992676 
201 204 205 
0.431885 0.390625 -0.99707 
201 204 205 
0.4375 0.391357 -0.999023 
200 206 208 
0.443115 0.39209 -1.00098 
203 209 211 
0.44873 0.392822 -1.00293 
205 211 211 
0.454346 0.393799 -1.00488 
209 212 213 
0.459229 0.393799 -1.00488 
209 215 217 
0.463867 0.393799 -1.00488 
211 216 221 
0.469727 0.394531 -1.00684 
211 216 221 
0.475342 0.395264 -1.00879 
211 216 223 
0.481201 0.39624 -1.01074 
215 217 223 
0.488037 0.397705 -1.01563 
215 218 221 
0.492676 0.397705 -1.01563 
218 221 224 
0.496582 0.396973 -1.0127 
219 221 227 
0.499268 0.395264 -1.00879 
223 226 229 
0.5 0.39209 -1.00098 
225 231 233 
0.499512 0.388184 -0.990723 
218 225 231 
0.499023 0.384033 -0.980469 
222 232 237 
0.499268 0.380859 -0.972168 
223 232 244 
0.499756 0.377686 -0.963867 
223 232 242 
0.501953 0.375977 -0.959961 
226 230 242 
0.505371 0.375244 -0.958008 
226 230 242 
0.504395 0.371094 -0.947754 
219 225 236 
0.51123 0.372803 -0.95166 
226 231 236 
0.518066 0.374512 -0.955566 
225 231 233 
0.530273 0.380127 -0.970215 
222 227 232 
0.537109 0.381592 -0.974121 
225 230 237 
0.541992 0.381592 -0.974121 
217 227 232 
0.547363 0.382568 -0.976563 
215 225 230 
0.552246 0.382568 -0.976563 
217 227 232 
0.555664 0.381592 -0.974121 
215 225 232 
0.559082 0.380859 -0.972168 
218 225 229 
0.561523 0.37915 -0.968262 
218 225 229 
0.561035 0.375977 -0.959961 
213 220 224 
0.562012 0.373535 -0.953613 
217 224 228 
0.558105 0.36792 -0.939453 
216 223 229 
0.557617 0.364746 -0.931152 
212 217 224 
0.557129 0.361572 -0.922852 
212 217 226 
0.557617 0.359131 -0.916504 
213 215 223 
0.558105 0.356689 -0.910645 
208 216 215 
0.561035 0.355957 -0.908691 
209 212 213 
0.566895 0.356689 -0.910645 
207 210 211 
0.572266 0.357422 -0.912598 
205 208 209 
0.558594 0.346191 -0.883789 
204 207 208 
0.561523 0.345459 -0.881836 
203 203 205 
0.563965 0.344482 -0.879883 
204 204 204 
0.566895 0.34375 -0.877441 
204 203 203 
0.569824 0.343018 -0.875488 
200 199 201 
0.57373 0.343018 -0.875488 
199 199 201 
0.592773 0.351807 -0.898438 
200 199 201 
0.597168 0.351807 -0.898438 
198 197 197 
0.600098 0.351074 -0.895996 
198 197 197 
0.601563 0.349365 -0.89209 
199 195 196 
0.603027 0.3479 -0.888184 
199 195 196 
0.605957 0.346924 -0.885742 
199 195 196 
0.607422 0.345459 -0.881836 
199 195 196 
0.609863 0.344482 -0.879883 
199 195 196 
0.614258 0.344482 -0.879883 
199 195 196 
0.618164 0.344482 -0.879883 
199 195 196 
0.622559 0.344482 -0.879883 
199 195 196 
0.626465 0.344482 -0.879883 
199 195 196 
0.632324 0.345459 -0.881836 
199 195 196 
0.63623 0.345459 -0.881836 
199 195 196 
0.64209 0.346191 -0.883789 
199 195 196 
0.649414 0.3479 -0.888184 
199 195 196 
0.654785 0.348633 -0.890137 
199 195 196 
0.660645 0.349365 -0.89209 
199 195 196 
0.667969 0.351074 -0.895996 
199 195 196 
0.673828 0.351807 -0.898438 
199 195 196 
0.678223 0.351807 -0.898438 
199 195 196 
0.682129 0.351807 -0.898438 
199 195 196 
0.686523 0.351807 -0.898438 
199 195 196 
0.6875 0.350342 -0.894043 
199 195 196 
0.688477 0.348633 -0.890137 
199 195 196 
0.689453 0.346924 -0.885742 
199 195 196 
0.688965 0.344482 -0.879883 
199 195 196 
0.686523 0.341309 -0.871582 
199 195 196 
0.677734 0.334961 -0.85498 
199 195 196 
0.676758 0.33252 -0.849121 
199 195 196 
0.679199 0.331787 -0.84668 
199 195 196 
0.688477 0.334229 -0.853027 
199 195 196 
0.69043 0.333252 -0.851074 
199 195 196 
0.692871 0.33252 -0.849121 
199 195 196 
0.696777 0.33252 -0.849121 
199 195 196 
0.701172 0.33252 -0.849121 
199 195 196 
0.706543 0.333252 -0.851074 
199 195 196 
0.708984 0.33252 -0.849121 
199 195 196 
0.712891 0.33252 -0.849121 
199 195 196 
0.717285 0.33252 -0.849121 
199 195 196 
0.719238 0.331787 -0.84668 
199 195 196 
0.72168 0.330811 -0.844727 
199 195 196 
0.737793 0.336426 -0.859375 
199 195 196 
0.738281 0.334961 -0.85498 
199 195 196 
0.73877 0.333252 -0.851074 
199 195 196 
0.741211 0.33252 -0.849121 
200 196 197 
0.741699 0.330811 -0.844727 
200 196 197 
0.743652 0.330078 -0.842773 
200 196 197 
0.746094 0.329346 -0.84082 
200 196 197 
0.735352 0.322754 -0.824219 
200 196 197 
0.739258 0.322754 -0.824219 
200 196 197 
0.743164 0.322754 -0.824219 
200 196 197 
0.756348 0.326904 -0.834473 
200 196 197 
0.760254 0.326904 -0.834473 
200 196 197 
0.76416 0.326904 -0.834473 
200 196 197 
0.766113 0.326172 -0.83252 
200 196 197 
0.764648 0.32373 -0.826172 
200 196 197 
0.766602 0.322754 -0.824219 
200 196 197 
0.768555 0.322021 -0.822266 
200 196 197 
0.772461 0.322021 -0.822266 
200 196 197 
0.774414 0.321289 -0.820313 
200 196 197 
0.776367 0.320313 -0.817871 
200 196 197 
0.780273 0.320313 -0.817871 
200 196 197 
0.781738 0.31958 -0.815918 
200 196 197 
0.76416 0.310791 -0.793457 
200 196 197 
0.783691 0.317139 -0.810059 
200 196 197 
0.785645 0.316406 -0.807617 
200 196 197 
0.793457 0.318115 -0.812012 
200 196 197 
0.79541 0.317139 -0.810059 
200 196 197 
0.780762 0.310059 -0.791504 
200 196 197 
0.784668 0.310059 -0.791504 
200 196 197 
0.790527 0.310791 -0.793457 
200 196 197 
0.800293 0.313232 -0.799316 
200 196 197 
0.804199 0.313232 -0.799316 
200 196 197 
-0.68457 0.35791 -0.924805 
114 103 98 
-0.680176 0.35791 -0.924805 
114 103 98 
-0.675781 0.35791 -0.924805 
113 102 97 
-0.672852 0.358643 -0.927246 
112 103 98 
-0.669922 0.359619 -0.929199 
111 102 97 
-0.666992 0.360352 -0.931152 
116 105 100 
-0.674316 0.366699 -0.947754 
112 102 100 
-0.658203 0.360352 -0.931152 
112 102 100 
-0.653809 0.360352 -0.931152 
111 103 100 
-0.647949 0.359619 -0.929199 
112 107 103 
-0.65332 0.36499 -0.943359 
111 102 97 
-0.645996 0.363525 -0.939453 
114 104 102 
-0.641602 0.363525 -0.939453 
117 107 107 
-0.637207 0.363525 -0.939453 
112 107 105 
-0.637207 0.365967 -0.945313 
110 109 111 
-0.635254 0.367432 -0.949707 
107 107 109 
-0.633301 0.369141 -0.953613 
116 116 110 
-0.635742 0.373047 -0.963867 
120 116 109 
-0.633789 0.374756 -0.968262 
121 114 108 
-0.630859 0.375488 -0.970215 
132 124 121 
-0.627441 0.376221 -0.972168 
138 128 128 
-0.623047 0.376221 -0.972168 
151 141 141 
-0.618164 0.376221 -0.972168 
161 155 157 
-0.612305 0.375488 -0.970215 
168 162 164 
-0.602539 0.372314 -0.961914 
182 181 181 
-0.59668 0.371582 -0.959961 
214 217 218 
-0.59082 0.370605 -0.958008 
233 234 230 
-0.584961 0.369873 -0.955566 
252 255 251 
-0.578125 0.368164 -0.95166 
250 255 254 
-0.547363 0.351563 -0.908691 
250 255 251 
-0.541016 0.350098 -0.904297 
252 255 251 
-0.535156 0.349121 -0.902344 
252 255 251 
-0.529785 0.348389 -0.900391 
252 255 251 
-0.522949 0.34668 -0.895996 
252 255 251 
-0.517578 0.345947 -0.894043 
252 255 251 
-0.51123 0.344482 -0.890137 
254 255 247 
-0.505859 0.343506 -0.888184 
255 255 247 
-0.500488 0.342773 -0.885742 
254 245 236 
-0.495117 0.342041 -0.883789 
240 227 214 
-0.489746 0.341309 -0.881836 
211 191 183 
-0.484619 0.340332 -0.879883 
193 173 165 
-0.462402 0.327637 -0.84668 
171 146 139 
-0.45166 0.322998 -0.834473 
159 139 131 
-0.45874 0.330811 -0.85498 
150 130 120 
-0.451416 0.328613 -0.849121 
132 111 106 
-0.445313 0.326904 -0.844727 
145 124 121 
-0.440186 0.326172 -0.842773 
128 119 112 
-0.436279 0.326172 -0.842773 
126 117 112 
-0.422852 0.318848 -0.824219 
124 115 110 
-0.441895 0.336426 -0.869629 
122 117 113 
-0.439941 0.338135 -0.873535 
120 115 111 
-0.437744 0.3396 -0.877441 
119 114 110 
-0.43457 0.340332 -0.879883 
121 113 110 
-0.428467 0.338867 -0.875488 
116 111 107 
-0.421387 0.336426 -0.869629 
117 117 111 
-0.41333 0.333252 -0.861328 
113 110 105 
-0.404297 0.329346 -0.851074 
118 115 110 
-0.395508 0.325195 -0.84082 
117 114 109 
-0.387695 0.322021 -0.83252 
115 112 107 
-0.37793 0.317383 -0.820313 
115 112 107 
-0.372314 0.315674 -0.815918 
116 112 105 
-0.368408 0.315674 -0.815918 
112 108 101 
-0.365479 0.31665 -0.817871 
117 115 105 
-0.362549 0.317383 -0.820313 
113 109 100 
-0.359375 0.318115 -0.822266 
116 112 103 
-0.355469 0.318115 -0.822266 
115 111 104 
-0.351807 0.318115 -0.822266 
112 110 102 
-0.3479 0.318115 -0.822266 
117 115 105 
-0.344727 0.318848 -0.824219 
115 113 103 
-0.342529 0.320557 -0.828125 
113 111 103 
-0.340332 0.322021 -0.83252 
118 114 107 
-0.338867 0.324463 -0.838379 
115 111 104 
-0.338135 0.327637 -0.84668 
113 109 100 
-0.33667 0.330078 -0.853027 
116 112 103 
-0.334961 0.33252 -0.859375 
112 108 99 
-0.333252 0.334961 -0.865234 
115 111 102 
-0.330078 0.335693 -0.867188 
114 112 102 
-0.325928 0.335693 -0.867188 
118 114 105 
-0.321777 0.335693 -0.867188 
114 110 101 
-0.316895 0.334961 -0.865234 
118 114 105 
-0.311279 0.333252 -0.861328 
118 114 107 
-0.306641 0.33252 -0.859375 
116 112 105 
-0.30249 0.33252 -0.859375 
118 114 105 
-0.299072 0.333252 -0.861328 
116 112 103 
-0.296387 0.334961 -0.865234 
119 115 106 
-0.303467 0.347656 -0.898438 
120 116 107 
-0.292969 0.340332 -0.879883 
120 118 110 
-0.291504 0.343506 -0.888184 
120 116 109 
-0.290039 0.34668 -0.895996 
125 121 114 
-0.287842 0.349121 -0.902344 
121 116 112 
-0.284912 0.35083 -0.90625 
123 119 112 
-0.287598 0.359619 -0.929199 
122 118 111 
-0.276123 0.35083 -0.90625 
120 118 110 
-0.27124 0.350098 -0.904297 
117 115 107 
-0.26709 0.350098 -0.904297 
120 116 109 
-0.262695 0.350098 -0.904297 
115 113 103 
-0.258545 0.350098 -0.904297 
119 117 107 
-0.256592 0.353271 -0.912598 
121 119 111 
-0.255615 0.35791 -0.924805 
117 115 107 
-0.255615 0.364258 -0.941406 
119 115 106 
-0.255615 0.370605 -0.958008 
119 117 107 
-0.254883 0.376221 -0.972168 
115 113 105 
-0.253906 0.381836 -0.986816 
118 116 108 
-0.251953 0.385742 -0.99707 
118 116 108 
-0.249756 0.389648 -1.00684 
119 117 109 
-0.248535 0.395264 -1.02148 
120 116 109 
-0.246216 0.399414 -1.03125 
121 117 108 
-0.244141 0.404053 -1.04395 
120 116 107 
-0.241577 0.407959 -1.05469 
122 118 109 
-0.248169 0.427979 -1.10547 
126 122 113 
-0.243774 0.429443 -1.10938 
121 117 108 
-0.23938 0.431152 -1.11426 
126 122 113 
-0.234619 0.431885 -1.11621 
124 122 112 
-0.230103 0.433594 -1.12012 
122 119 114 
-0.225708 0.435059 -1.12402 
125 122 117 
-0.221191 0.436768 -1.12793 
124 121 116 
-0.217407 0.439941 -1.13672 
122 118 111 
-0.214355 0.44458 -1.14844 
130 126 119 
-0.210693 0.44873 -1.15918 
126 124 116 
-0.218018 0.476563 -1.23145 
130 125 121 
-0.217163 0.487549 -1.25977 
130 125 121 
-0.213257 0.492432 -1.27246 
132 127 123 
-0.207275 0.492432 -1.27246 
135 130 126 
-0.200195 0.48999 -1.26563 
136 128 125 
-0.19165 0.483643 -1.25 
134 126 123 
-0.175659 0.45752 -1.18164 
130 125 123 
-0.17334 0.466064 -1.2041 
134 129 127 
-0.158813 0.441406 -1.14063 
133 128 126 
-0.150635 0.433594 -1.12012 
129 124 120 
-0.143188 0.427246 -1.10352 
129 125 118 
-0.135132 0.418457 -1.08105 
135 131 124 
-0.128296 0.412842 -1.06641 
136 132 123 
-0.121826 0.407959 -1.05469 
136 132 123 
-0.119141 0.416016 -1.0752 
136 132 123 
-0.113647 0.414551 -1.07031 
136 132 123 
-0.108582 0.414551 -1.07031 
137 133 124 
-0.103455 0.414551 -1.07031 
133 129 120 
-0.0983887 0.414551 -1.07031 
132 128 119 
-0.0933228 0.414551 -1.07031 
134 127 119 
-0.085083 0.399414 -1.03125 
138 131 123 
-0.0802002 0.399414 -1.03125 
135 131 122 
-0.0753174 0.399414 -1.03125 
137 133 124 
-0.0704346 0.399414 -1.03125 
134 130 121 
-0.0655518 0.399414 -1.03125 
129 125 118 
-0.0606689 0.399414 -1.03125 
129 126 121 
-0.0558777 0.400146 -1.03418 
129 126 121 
-0.0510864 0.400879 -1.03613 
132 129 124 
-0.0462952 0.401611 -1.03809 
134 131 126 
-0.0414734 0.402588 -1.04004 
140 138 130 
-0.0366211 0.40332 -1.04199 
139 137 129 
-0.0316772 0.40332 -1.04199 
141 138 133 
-0.0267029 0.402588 -1.04004 
141 138 135 
-0.0217743 0.402588 -1.04004 
140 136 137 
-0.0167999 0.400879 -1.03613 
142 142 142 
-0.0118713 0.400146 -1.03418 
143 143 143 
-0.00695419 0.398438 -1.0293 
146 146 146 
-0.0020771 0.397705 -1.02734 
153 153 153 
0.00277901 0.396973 -1.02539 
155 158 159 
0.00761795 0.39624 -1.02344 
155 158 159 
0.0124588 0.39624 -1.02344 
160 163 166 
0.0172577 0.395264 -1.02148 
167 167 171 
0.0220947 0.395264 -1.02148 
171 177 179 
0.0269318 0.395264 -1.02148 
172 178 180 
0.0317078 0.394531 -1.01953 
179 184 189 
0.0365295 0.394531 -1.01953 
182 188 190 
0.0412598 0.393799 -1.01758 
182 188 190 
0.0460815 0.393799 -1.01758 
185 191 193 
0.0507813 0.393066 -1.01563 
184 192 193 
0.055603 0.393066 -1.01563 
185 193 194 
0.0603943 0.393066 -1.01563 
184 192 193 
0.0651855 0.393066 -1.01563 
185 193 194 
0.0700073 0.393066 -1.01563 
185 193 194 
0.074646 0.39209 -1.0127 
183 191 192 
0.0794678 0.39209 -1.0127 
181 189 190 
0.0840454 0.391357 -1.01074 
183 191 192 
0.0886841 0.390625 -1.00879 
181 189 190 
0.0934448 0.390625 -1.00879 
181 189 190 
0.0982056 0.390625 -1.00879 
180 188 189 
0.102966 0.390625 -1.00879 
180 188 189 
0.107544 0.389648 -1.00684 
177 185 186 
0.112549 0.390625 -1.00879 
176 184 185 
0.11731 0.390625 -1.00879 
176 184 185 
0.12207 0.390625 -1.00879 
177 183 185 
0.126831 0.390625 -1.00879 
178 184 186 
0.131592 0.390625 -1.00879 
179 185 187 
0.136108 0.389648 -1.00684 
178 184 186 
0.140869 0.389648 -1.00684 
182 188 190 
0.14502 0.388184 -1.00293 
178 186 187 
0.149536 0.387451 -1.00098 
180 188 189 
0.153564 0.385742 -0.99707 
183 191 192 
0.157715 0.384277 -0.992676 
187 195 196 
0.161743 0.382568 -0.98877 
190 198 199 
0.165649 0.381104 -0.984375 
191 197 197 
0.169678 0.379395 -0.980469 
191 197 197 
0.173584 0.37793 -0.976563 
191 197 197 
0.177368 0.376221 -0.972168 
193 199 199 
0.18042 0.373047 -0.963867 
198 204 204 
0.183838 0.370605 -0.958008 
200 206 206 
0.186768 0.367432 -0.949707 
204 210 210 
0.189575 0.364258 -0.941406 
209 215 215 
0.192383 0.361084 -0.933105 
213 219 219 
0.195923 0.359619 -0.929199 
213 223 226 
0.201172 0.361084 -0.933105 
215 225 228 
0.2052 0.360352 -0.931152 
219 229 232 
0.209595 0.360352 -0.931152 
226 233 237 
0.213989 0.360352 -0.931152 
227 232 237 
0.217896 0.359619 -0.929199 
228 233 240 
0.221802 0.358643 -0.927246 
232 237 244 
0.22168 0.351563 -0.908691 
235 240 245 
0.228516 0.355469 -0.918945 
237 239 245 
0.2323 0.354736 -0.916504 
234 239 244 
0.236694 0.354736 -0.916504 
233 238 243 
0.241577 0.355469 -0.918945 
235 240 247 
0.24646 0.356445 -0.920898 
234 239 244 
0.251221 0.357178 -0.922852 
228 233 238 
0.256836 0.358643 -0.927246 
227 232 237 
0.262451 0.360352 -0.931152 
227 232 237 
0.269043 0.363525 -0.939453 
228 233 238 
0.275879 0.366699 -0.947754 
224 229 234 
0.28418 0.371582 -0.959961 
221 226 231 
0.293701 0.37793 -0.976563 
218 228 231 
0.30249 0.383301 -0.990723 
217 224 228 
0.3125 0.389648 -1.00684 
214 220 220 
0.335205 0.412109 -1.06445 
213 219 219 
0.346191 0.419189 -1.08301 
213 216 217 
0.368652 0.439941 -1.13672 
213 216 219 
0.335449 0.394531 -1.01953 
208 211 214 
0.336914 0.390625 -1.00879 
209 209 211 
0.342285 0.391357 -1.01074 
205 208 209 
0.342285 0.385742 -0.99707 
200 206 206 
0.342773 0.381104 -0.984375 
200 206 206 
0.34375 0.376953 -0.974121 
202 208 208 
0.345459 0.373779 -0.966309 
196 202 202 
0.351318 0.375488 -0.970215 
198 204 206 
0.354492 0.373779 -0.966309 
197 203 205 
0.358398 0.373047 -0.963867 
196 202 202 
0.361328 0.371582 -0.959961 
196 202 202 
0.366699 0.372314 -0.961914 
196 202 202 
0.372803 0.373779 -0.966309 
198 201 202 
0.379883 0.376221 -0.972168 
197 200 203 
0.385986 0.37793 -0.976563 
195 201 203 
0.393066 0.380127 -0.982422 
195 201 203 
0.400146 0.382568 -0.98877 
196 202 204 
0.406494 0.384277 -0.992676 
197 203 205 
0.413086 0.385742 -0.99707 
199 202 203 
0.419434 0.387451 -1.00098 
201 204 205 
0.426025 0.388916 -1.00488 
200 203 206 
0.432373 0.390625 -1.00879 
202 205 208 
0.438965 0.39209 -1.0127 
201 204 205 
0.44458 0.393066 -1.01563 
206 206 208 
0.450439 0.393799 -1.01758 
206 209 212 
0.455322 0.393799 -1.01758 
203 209 211 
0.459961 0.393799 -1.01758 
206 212 214 
0.463867 0.393066 -1.01563 
205 211 213 
0.46875 0.393066 -1.01563 
206 211 216 
0.473389 0.393066 -1.01563 
209 214 219 
0.478271 0.393066 -1.01563 
213 218 223 
0.485107 0.394531 -1.01953 
211 218 222 
0.490967 0.395264 -1.02148 
212 217 222 
0.495605 0.395264 -1.02148 
220 225 230 
0.499512 0.394531 -1.01953 
222 221 228 
0.502441 0.393066 -1.01563 
220 222 232 
0.50293 0.389648 -1.00684 
230 232 238 
0.502441 0.385742 -0.99707 
224 226 232 
0.500977 0.381104 -0.984375 
222 224 230 
0.501465 0.37793 -0.976563 
224 231 237 
0.501953 0.374756 -0.968262 
221 228 234 
0.504395 0.373047 -0.963867 
223 230 238 
0.507813 0.372314 -0.961914 
225 232 240 
0.512207 0.372314 -0.961914 
223 233 240 
0.513184 0.369873 -0.955566 
221 226 233 
0.525879 0.375488 -0.970215 
221 228 232 
0.532715 0.376953 -0.974121 
227 232 237 
0.538574 0.37793 -0.976563 
222 227 232 
0.542969 0.37793 -0.976563 
219 224 229 
0.548828 0.378662 -0.978516 
222 227 232 
0.552246 0.37793 -0.976563 
221 226 231 
0.555664 0.376953 -0.974121 
217 222 227 
0.558105 0.375488 -0.970215 
217 222 227 
0.559082 0.373047 -0.963867 
216 221 226 
0.558594 0.369873 -0.955566 
214 216 222 
0.555664 0.36499 -0.943359 
216 218 226 
0.556641 0.362793 -0.9375 
213 215 221 
0.555176 0.358643 -0.927246 
211 216 221 
0.555664 0.356445 -0.920898 
214 216 222 
0.555176 0.353271 -0.912598 
211 210 217 
0.556641 0.351563 -0.908691 
214 213 220 
0.560059 0.35083 -0.90625 
214 213 217 
0.544922 0.338867 -0.875488 
209 209 213 
0.547852 0.338135 -0.873535 
206 209 210 
0.550781 0.337158 -0.871582 
202 205 208 
0.552246 0.335693 -0.867188 
208 207 209 
0.554688 0.334961 -0.865234 
202 201 203 
0.559082 0.334961 -0.865234 
201 200 200 
0.562988 0.334961 -0.865234 
200 200 200 
0.567383 0.334961 -0.865234 
197 197 197 
0.572754 0.335693 -0.867188 
197 197 197 
0.595703 0.34668 -0.895996 
195 195 195 
0.598633 0.345947 -0.894043 
194 194 194 
0.601563 0.345215 -0.89209 
194 194 194 
0.603027 0.343506 -0.888184 
194 194 194 
0.604492 0.342041 -0.883789 
194 194 194 
0.607422 0.341309 -0.881836 
194 194 194 
0.611328 0.341309 -0.881836 
194 194 194 
0.614258 0.340332 -0.879883 
194 194 194 
0.618164 0.340332 -0.879883 
194 194 194 
0.624023 0.341309 -0.881836 
194 194 194 
0.62793 0.341309 -0.881836 
194 194 194 
0.633789 0.342041 -0.883789 
194 194 194 
0.637695 0.342041 -0.883789 
194 194 194 
0.643555 0.342773 -0.885742 
194 194 194 
0.650879 0.344482 -0.890137 
194 194 194 
0.65625 0.345215 -0.89209 
194 194 194 
0.662109 0.345947 -0.894043 
194 194 194 
0.669434 0.347656 -0.898438 
194 194 194 
0.675293 0.348389 -0.900391 
194 194 194 
0.679688 0.348389 -0.900391 
194 194 194 
0.685547 0.349121 -0.902344 
194 194 194 
0.687988 0.348389 -0.900391 
194 194 194 
0.690918 0.347656 -0.898438 
194 194 194 
0.691895 0.345947 -0.894043 
194 194 194 
0.691406 0.343506 -0.888184 
194 194 194 
0.69043 0.341309 -0.881836 
194 194 194 
0.689941 0.338867 -0.875488 
194 194 194 
0.6875 0.335693 -0.867188 
194 194 194 
0.688477 0.333984 -0.863281 
194 194 194 
0.688965 0.33252 -0.859375 
194 194 194 
0.689941 0.330811 -0.85498 
194 194 194 
0.692383 0.330078 -0.853027 
194 194 194 
0.696289 0.330078 -0.853027 
194 194 194 
0.702148 0.330811 -0.85498 
194 194 194 
0.706055 0.330811 -0.85498 
194 194 194 
0.709961 0.330811 -0.85498 
194 194 194 
0.714355 0.330811 -0.85498 
194 194 194 
0.716309 0.330078 -0.853027 
194 194 194 
0.71875 0.329346 -0.851074 
194 194 194 
0.721191 0.328613 -0.849121 
194 194 194 
0.723145 0.327637 -0.84668 
194 194 194 
0.736328 0.331787 -0.856934 
194 194 194 
0.736816 0.330078 -0.853027 
194 194 194 
0.737305 0.328613 -0.849121 
194 194 194 
0.737793 0.326904 -0.844727 
194 194 194 
0.739746 0.326172 -0.842773 
194 194 194 
0.729492 0.319824 -0.826172 
194 194 194 
0.733398 0.319824 -0.826172 
194 194 194 
0.737305 0.319824 -0.826172 
194 194 194 
0.757813 0.326904 -0.844727 
194 194 194 
0.763672 0.327637 -0.84668 
194 194 194 
0.756348 0.322998 -0.834473 
194 194 194 
0.762207 0.32373 -0.836426 
194 194 194 
0.76416 0.322998 -0.834473 
194 194 194 
0.762207 0.320557 -0.828125 
194 194 194 
0.766602 0.320557 -0.828125 
194 194 194 
0.768555 0.319824 -0.826172 
194 194 194 
0.770508 0.318848 -0.824219 
195 195 195 
0.772461 0.318115 -0.822266 
195 195 195 
0.774414 0.317383 -0.820313 
195 195 195 
0.77832 0.317383 -0.820313 
195 195 195 
0.780273 0.31665 -0.817871 
195 195 195 
0.777832 0.314209 -0.812012 
195 195 195 
0.783691 0.314941 -0.813965 
195 195 195 
0.787598 0.314941 -0.813965 
195 195 195 
0.769531 0.306152 -0.791504 
195 195 195 
0.771484 0.30542 -0.789063 
195 195 195 
0.774902 0.30542 -0.789063 
195 195 195 
0.778809 0.30542 -0.789063 
195 195 195 
0.782715 0.30542 -0.789063 
195 195 195 
0.788086 0.306152 -0.791504 
195 195 195 
0.79834 0.308594 -0.797363 
195 195 195 
0.804199 0.309326 -0.799316 
195 195 195 
-0.693359 0.358154 -0.9375 
122 94 95 
-0.688965 0.358154 -0.9375 
119 100 96 
-0.686035 0.359131 -0.939453 
108 99 92 
-0.683105 0.359863 -0.941406 
107 98 91 
-0.680176 0.360596 -0.943359 
105 96 89 
-0.677246 0.361328 -0.945313 
113 102 97 
-0.696289 0.374023 -0.978516 
114 103 98 
-0.691406 0.374023 -0.978516 
111 102 97 
-0.685547 0.373291 -0.976563 
115 106 101 
-0.656738 0.359863 -0.941406 
111 104 98 
-0.651855 0.359863 -0.941406 
112 101 96 
-0.660156 0.366943 -0.959961 
116 107 102 
-0.654297 0.366211 -0.958008 
123 114 109 
-0.649902 0.366211 -0.958008 
114 110 103 
-0.647949 0.367676 -0.961914 
111 112 103 
-0.64502 0.368408 -0.963867 
106 106 100 
-0.643066 0.370117 -0.968262 
110 107 104 
-0.642578 0.372314 -0.974121 
114 106 103 
-0.640625 0.374023 -0.978516 
111 107 100 
-0.637207 0.374756 -0.980469 
111 106 102 
-0.634277 0.375488 -0.982422 
121 117 108 
-0.629395 0.375488 -0.982422 
118 114 105 
-0.624512 0.375488 -0.982422 
113 109 102 
-0.620117 0.375488 -0.982422 
115 110 106 
-0.611816 0.373291 -0.976563 
120 117 112 
-0.605469 0.372314 -0.974121 
126 121 117 
-0.599609 0.371582 -0.972168 
128 125 120 
-0.59375 0.37085 -0.970215 
126 126 120 
-0.586914 0.369385 -0.966309 
118 119 113 
-0.557617 0.353516 -0.924805 
130 131 127 
-0.550781 0.352051 -0.920898 
140 135 131 
-0.543945 0.350342 -0.916504 
177 175 165 
-0.538086 0.349609 -0.914551 
195 187 184 
-0.532715 0.348877 -0.912598 
216 217 213 
-0.527344 0.348145 -0.910645 
243 247 242 
-0.520508 0.346436 -0.90625 
252 255 249 
-0.516113 0.346436 -0.90625 
250 255 251 
-0.510742 0.345703 -0.904297 
250 255 249 
-0.506348 0.345703 -0.904297 
252 255 251 
-0.503418 0.346436 -0.90625 
252 255 251 
-0.499268 0.346436 -0.90625 
252 255 249 
-0.510742 0.357422 -0.935059 
252 255 249 
-0.510742 0.360596 -0.943359 
252 255 249 
-0.507324 0.361328 -0.945313 
254 255 247 
-0.50293 0.361328 -0.945313 
255 255 247 
-0.497314 0.360596 -0.943359 
243 234 225 
-0.490723 0.359131 -0.939453 
229 211 202 
-0.483154 0.356689 -0.933105 
196 173 168 
-0.476563 0.355225 -0.929199 
178 152 141 
-0.45752 0.344238 -0.900391 
171 144 136 
-0.453369 0.344238 -0.900391 
153 133 125 
-0.449951 0.344971 -0.902344 
147 127 119 
-0.444824 0.344238 -0.900391 
138 122 115 
-0.438477 0.342529 -0.895996 
139 125 117 
-0.430176 0.339355 -0.888184 
133 122 117 
-0.421143 0.335449 -0.877441 
129 119 119 
-0.411133 0.330811 -0.865234 
127 119 116 
-0.4021 0.326904 -0.85498 
120 115 111 
-0.393311 0.322998 -0.844727 
120 117 112 
-0.378906 0.314209 -0.822266 
124 121 116 
-0.373047 0.312744 -0.817871 
120 115 111 
-0.368408 0.312012 -0.815918 
119 114 110 
-0.364502 0.312012 -0.815918 
119 115 108 
-0.363281 0.314209 -0.822266 
118 114 105 
-0.359375 0.314209 -0.822266 
119 115 108 
-0.354736 0.313477 -0.820313 
119 115 108 
-0.349854 0.312744 -0.817871 
119 115 108 
-0.345947 0.312744 -0.817871 
121 117 110 
-0.342285 0.312744 -0.817871 
119 115 108 
-0.339111 0.313477 -0.820313 
117 115 105 
-0.336914 0.314941 -0.824219 
112 110 100 
