ply
format ascii 1.0
comment pointcloud saved from Realsense Viewer
element vertex 2437
property float32 x
property float32 y
property float32 z
property uchar red
property uchar green
property uchar blue
end_header
0.913086 1.14258 -3.97266 
58 0 0 
0.931152 1.14258 -3.9707 
58 0 0 
0.949219 1.1416 -3.96875 
58 0 0 
0.964844 1.1377 -3.95508 
58 0 0 
0.981445 1.13477 -3.94727 
58 0 0 
0.998047 1.13281 -3.9375 
58 0 0 
1.01367 1.12988 -3.92773 
62 0 0 
1.03027 1.12793 -3.91992 
63 0 0 
1.04395 1.12207 -3.90039 
73 0 0 
1.05566 1.11523 -3.87695 
80 0 0 
1.06543 1.10547 -3.8457 
85 0 0 
1.07324 1.0957 -3.81055 
90 0 0 
1.08008 1.08496 -3.77148 
93 0 0 
1.08691 1.07324 -3.73242 
97 0 0 
1.09473 1.06348 -3.69727 
101 0 0 
1.10254 1.05469 -3.66602 
105 0 0 
1.1123 1.04785 -3.64258 
109 0 0 
1.12402 1.04199 -3.625 
116 0 0 
1.1377 1.03906 -3.61133 
124 0 0 
1.15137 1.03613 -3.60156 
133 0 0 
1.16504 1.0332 -3.5918 
141 0 0 
1.17676 1.02832 -3.57422 
154 0 0 
1.18555 1.02148 -3.55078 
170 0 0 
1.19141 1.01172 -3.51758 
181 0 0 
1.19336 1 -3.47852 
189 0 0 
1.19531 0.987793 -3.43359 
196 0 0 
1.19629 0.976074 -3.39258 
203 0 0 
1.19922 0.965332 -3.35547 
209 0 0 
1.20313 0.956055 -3.32227 
215 0 0 
1.20898 0.947754 -3.29492 
220 0 0 
1.21484 0.94043 -3.26953 
224 0 0 
1.22168 0.934082 -3.24609 
229 0 0 
1.23047 0.928711 -3.22852 
238 0 0 
1.23828 0.92334 -3.20898 
238 0 0 
1.24707 0.918457 -3.19336 
242 0 0 
1.25488 0.913574 -3.17578 
247 0 0 
1.26172 0.907227 -3.1543 
253 0 0 
1.2666 0.899902 -3.12891 
254 7 0 
1.26855 0.891113 -3.09766 
254 16 0 
1.26758 0.880371 -3.06055 
254 26 0 
1.26563 0.869141 -3.02148 
254 37 0 
1.26172 0.856445 -2.97656 
254 48 0 
1.25391 0.842285 -2.92773 
254 59 0 
1.24707 0.828125 -2.87891 
254 70 0 
1.24316 0.816406 -2.83789 
254 81 0 
1.24121 0.806152 -2.80273 
254 92 0 
1.24121 0.797852 -2.77344 
254 100 0 
1.24414 0.791504 -2.75 
254 109 0 
1.24902 0.786621 -2.73438 
254 115 0 
1.25879 0.78418 -2.72656 
254 118 0 
1.27246 0.785156 -2.72852 
254 117 0 
1.29102 0.788574 -2.74023 
254 111 0 
1.31641 0.796387 -2.76758 
254 101 0 
1.35059 0.808594 -2.81055 
254 86 0 
1.39063 0.824707 -2.86719 
254 69 0 
1.43945 0.845215 -2.93945 
254 49 0 
1.49609 0.869629 -3.02344 
254 26 0 
1.55859 0.897949 -3.12109 
254 0 0 
1.63086 0.930664 -3.23633 
232 0 0 
1.7041 0.963379 -3.34766 
210 0 0 
1.77051 0.991211 -3.44727 
190 0 0 
1.82227 1.01074 -3.51563 
168 0 0 
1.89648 1.04297 -3.62695 
108 0 0 
2.05859 1.04688 -3.63867 
115 0 0 
2.05273 1.03516 -3.59961 
121 0 0 
2.0918 1.0459 -3.63672 
124 0 0 
2.05664 1.02051 -3.54883 
191 0 0 
1.74219 0.856934 -2.98047 
254 12 0 
1.69141 0.825195 -2.86914 
254 104 0 
1.53418 0.743164 -2.58398 
254 159 0 
1.49902 0.720215 -2.50391 
254 187 0 
1.44531 0.688965 -2.39453 
254 216 0 
1.29102 0.605469 -2.10547 
207 254 47 
1.33008 0.619141 -2.15234 
217 254 37 
1.32715 0.613281 -2.13086 
201 254 53 
1.3252 0.60791 -2.11328 
172 254 82 
1.3252 0.603516 -2.09766 
135 254 119 
1.31934 0.596191 -2.07227 
135 254 119 
1.31836 0.591309 -2.05469 
125 254 128 
1.31934 0.587402 -2.04297 
118 254 136 
1.31641 0.581543 -2.02148 
112 254 142 
1.32324 0.580566 -2.01953 
109 254 145 
1.33008 0.579102 -2.01367 
106 254 148 
1.33789 0.578613 -2.01172 
105 254 149 
1.34473 0.577637 -2.00781 
104 254 150 
1.35352 0.577148 -2.00586 
103 254 151 
1.36035 0.576172 -2.00195 
102 254 152 
1.36426 0.57373 -1.99512 
101 254 153 
1.36523 0.570313 -1.9834 
98 254 156 
1.36328 0.56543 -1.96582 
95 254 159 
1.35938 0.560059 -1.94727 
90 254 164 
1.34961 0.552246 -1.9209 
84 254 170 
1.3418 0.54541 -1.89551 
78 254 175 
1.33301 0.538574 -1.87207 
72 254 182 
1.32715 0.532227 -1.85059 
66 254 188 
1.32129 0.526367 -1.83105 
59 254 194 
1.31543 0.520508 -1.81055 
54 254 200 
1.30957 0.515137 -1.79199 
48 254 206 
1.30469 0.509766 -1.77246 
41 254 213 
1.2998 0.504883 -1.75488 
36 254 218 
1.2959 0.5 -1.73828 
31 254 223 
1.29297 0.496094 -1.72461 
25 254 229 
1.29199 0.492432 -1.71191 
20 254 234 
1.29199 0.489258 -1.70117 
16 254 238 
1.29297 0.486816 -1.69238 
11 254 243 
1.29395 0.484131 -1.68262 
8 254 246 
1.2959 0.481934 -1.6748 
4 254 250 
1.29688 0.479248 -1.66602 
1 254 253 
1.29883 0.477051 -1.6582 
0 251 254 
1.29883 0.474365 -1.64941 
0 247 254 
1.30176 0.472412 -1.6416 
0 245 254 
1.30469 0.470703 -1.63574 
0 242 254 
1.30762 0.46875 -1.62988 
0 239 254 
1.30957 0.466797 -1.62305 
0 236 254 
1.31152 0.464844 -1.61621 
0 234 254 
1.31348 0.462891 -1.6084 
0 232 254 
1.31348 0.460205 -1.59961 
0 229 254 
1.3125 0.457275 -1.58984 
0 225 254 
1.31152 0.454346 -1.58008 
0 222 254 
1.31152 0.451416 -1.56934 
0 219 254 
1.31055 0.44873 -1.55957 
0 216 254 
1.30762 0.445068 -1.54785 
0 213 254 
1.30469 0.44165 -1.53516 
0 209 254 
1.2998 0.437744 -1.52148 
0 205 254 
1.29395 0.43335 -1.50684 
0 201 254 
1.28906 0.429199 -1.49219 
0 197 254 
1.28418 0.425537 -1.47949 
0 192 254 
1.28125 0.422119 -1.4668 
0 188 254 
1.28027 0.419434 -1.45801 
0 185 254 
1.28027 0.417236 -1.4502 
0 179 254 
1.28223 0.415771 -1.44531 
0 179 254 
1.28516 0.414551 -1.44141 
0 176 254 
1.29102 0.414063 -1.43945 
0 173 254 
1.2959 0.41333 -1.4375 
0 171 254 
1.30176 0.413086 -1.43652 
0 170 254 
1.30664 0.412598 -1.43457 
0 161 254 
1.31152 0.411865 -1.43164 
0 159 254 
1.31543 0.411133 -1.42871 
0 158 254 
1.31738 0.409668 -1.42383 
0 155 254 
1.31934 0.408203 -1.41895 
0 153 254 
1.32031 0.406494 -1.41309 
0 145 254 
1.32031 0.404541 -1.40625 
0 141 254 
1.32129 0.402832 -1.40039 
0 138 254 
1.32129 0.400635 -1.39258 
0 136 254 
1.32227 0.398926 -1.38672 
0 132 254 
1.32324 0.397217 -1.38086 
0 129 254 
1.3252 0.395752 -1.37598 
0 125 254 
1.32813 0.394531 -1.37207 
0 122 254 
1.33105 0.393799 -1.36914 
0 120 254 
1.33496 0.392822 -1.36621 
0 118 254 
1.33887 0.392334 -1.36426 
0 116 254 
1.34277 0.391357 -1.36035 
0 114 254 
1.34277 0.389648 -1.35449 
0 112 254 
1.35156 0.390381 -1.35645 
0 112 254 
1.35742 0.390137 -1.35547 
0 111 254 
1.36035 0.38916 -1.35254 
0 111 254 
-1.2666 0.374268 -1.32227 
0 0 0 
-1.25684 0.373047 -1.31836 
0 101 254 
-1.25 0.373047 -1.31836 
0 102 254 
-1.24512 0.373291 -1.31934 
0 102 254 
-1.23926 0.373779 -1.32031 
0 103 254 
-1.23633 0.374512 -1.32324 
0 103 254 
-1.23242 0.375488 -1.32715 
0 105 254 
-1.23047 0.376465 -1.33105 
0 106 254 
-1.22949 0.378174 -1.33691 
0 107 254 
-1.22852 0.379883 -1.34277 
0 109 254 
-1.22852 0.381836 -1.34961 
0 112 254 
-1.22852 0.383789 -1.35645 
0 117 254 
-1.23047 0.386475 -1.36621 
0 122 254 
-1.23145 0.388672 -1.37402 
0 127 254 
-1.23242 0.391357 -1.38281 
0 132 254 
-1.2334 0.393555 -1.39063 
0 136 254 
-1.23242 0.395508 -1.39844 
0 140 254 
-1.2334 0.397705 -1.40625 
0 145 254 
-1.23242 0.399902 -1.41309 
0 154 254 
-1.2334 0.4021 -1.4209 
0 154 254 
-1.23438 0.404541 -1.42969 
0 157 254 
-1.23535 0.407227 -1.43945 
0 162 254 
-1.23633 0.409668 -1.44824 
0 166 254 
-1.2373 0.412354 -1.45703 
0 171 254 
-1.2373 0.414795 -1.46582 
0 175 254 
-1.2373 0.417236 -1.47461 
0 179 254 
-1.23828 0.419678 -1.4834 
0 183 254 
-1.23828 0.422119 -1.49219 
0 187 254 
-1.23926 0.425049 -1.50195 
0 191 254 
-1.24121 0.428223 -1.51367 
0 196 254 
-1.24316 0.431396 -1.52441 
0 201 254 
-1.24512 0.43457 -1.53516 
0 205 254 
-1.24707 0.4375 -1.54688 
0 210 254 
-1.24902 0.440918 -1.55859 
0 213 254 
-1.25 0.443848 -1.56836 
0 218 254 
-1.25098 0.447021 -1.58008 
0 221 254 
-1.25195 0.449951 -1.59082 
0 226 254 
-1.25293 0.452881 -1.60059 
0 230 254 
-1.25391 0.456055 -1.61133 
0 235 254 
-1.25488 0.459473 -1.62402 
0 239 254 
-1.25586 0.462646 -1.63477 
0 244 254 
-1.25781 0.466064 -1.64648 
0 248 254 
-1.25879 0.469482 -1.65918 
0 253 254 
-1.25977 0.4729 -1.6709 
4 254 250 
-1.26074 0.47583 -1.68164 
9 254 245 
-1.25977 0.47876 -1.69238 
13 254 240 
-1.25977 0.481934 -1.70313 
18 254 236 
-1.26074 0.485107 -1.71387 
23 254 231 
-1.26074 0.488037 -1.72559 
26 254 227 
-1.26074 0.491455 -1.7373 
31 254 223 
-1.26172 0.494873 -1.74902 
34 254 220 
-1.2627 0.498535 -1.7627 
37 254 217 
-1.2627 0.501953 -1.77441 
41 254 213 
-1.26367 0.505859 -1.78711 
44 254 210 
-1.26367 0.508789 -1.7998 
48 254 206 
-1.26465 0.513184 -1.81348 
52 254 202 
-1.26563 0.516602 -1.82617 
56 254 198 
-1.2666 0.520996 -1.8418 
60 254 193 
-1.26855 0.525391 -1.85645 
65 254 189 
-1.26953 0.529297 -1.87207 
70 254 184 
-1.27051 0.533691 -1.88574 
74 254 180 
-1.27148 0.537598 -1.90039 
78 254 175 
-1.27148 0.541504 -1.91406 
83 254 171 
-1.27148 0.54541 -1.92773 
87 254 167 
-1.27246 0.549805 -1.94336 
92 254 162 
-1.27344 0.554199 -1.95898 
96 254 158 
-1.27539 0.559082 -1.97656 
102 254 152 
-1.27734 0.563965 -1.99316 
107 254 147 
-1.27832 0.568848 -2.00977 
113 254 140 
-1.2793 0.573242 -2.02539 
121 254 133 
-1.28027 0.578125 -2.04297 
128 254 125 
-1.28027 0.58252 -2.05859 
150 254 104 
-1.28027 0.586914 -2.07422 
150 254 104 
-1.28125 0.591797 -2.0918 
164 254 89 
-1.28125 0.59668 -2.10938 
186 254 68 
-1.28223 0.602051 -2.12695 
204 254 50 
-1.2832 0.606934 -2.14453 
216 254 38 
-1.28516 0.612793 -2.16602 
225 254 29 
-1.28613 0.618164 -2.18555 
232 254 22 
-1.28906 0.624512 -2.20703 
241 254 13 
-1.29199 0.631348 -2.23047 
248 254 6 
-1.29492 0.637695 -2.25391 
254 252 0 
-1.29688 0.644043 -2.27734 
254 244 0 
-1.30078 0.651367 -2.30273 
254 236 0 
-1.30371 0.658203 -2.32617 
254 229 0 
-1.30664 0.665527 -2.35156 
254 221 0 
-1.30957 0.672852 -2.37891 
254 213 0 
-1.31348 0.680176 -2.4043 
254 204 0 
-1.31445 0.687012 -2.42773 
254 196 0 
-1.31543 0.693848 -2.45117 
254 190 0 
-1.31543 0.699707 -2.47266 
254 184 0 
-1.31543 0.706055 -2.49414 
254 179 0 
-1.31445 0.711914 -2.51758 
254 172 0 
-1.31543 0.71875 -2.54102 
254 166 0 
-1.31738 0.727051 -2.56836 
254 158 0 
-1.32129 0.73584 -2.59961 
254 150 0 
-1.32617 0.745117 -2.63477 
254 141 0 
-1.33203 0.755371 -2.66992 
254 133 0 
-1.33691 0.765625 -2.70703 
254 123 0 
-1.3418 0.775879 -2.74219 
254 108 0 
-1.3457 0.785645 -2.77734 
254 95 0 
-1.34766 0.794922 -2.80859 
254 84 0 
-1.34863 0.803223 -2.83789 
254 75 0 
-1.34766 0.810547 -2.86328 
254 68 0 
-1.34473 0.816895 -2.88672 
254 61 0 
-1.34082 0.822754 -2.9082 
254 55 0 
-1.33496 0.828125 -2.92773 
254 50 0 
-1.33105 0.833984 -2.94727 
254 44 0 
-1.32617 0.840332 -2.96875 
254 38 0 
-1.32422 0.847656 -2.99609 
254 31 0 
-1.32324 0.856445 -3.02734 
254 22 0 
-1.3252 0.866699 -3.0625 
254 12 0 
-1.32813 0.878418 -3.10547 
254 2 0 
-1.33301 0.891113 -3.15039 
247 0 0 
-1.33691 0.904297 -3.19727 
239 0 0 
-1.3418 0.917969 -3.24414 
230 0 0 
-1.34473 0.930664 -3.28906 
222 0 0 
-1.34668 0.942871 -3.33398 
214 0 0 
-1.34766 0.955078 -3.375 
208 0 0 
-1.34766 0.966309 -3.41602 
201 0 0 
-1.3457 0.976074 -3.45117 
197 0 0 
-1.34082 0.984863 -3.48047 
193 0 0 
-1.33301 0.991699 -3.50391 
189 0 0 
-1.32422 0.997559 -3.52539 
187 0 0 
-1.31445 1.00195 -3.54102 
181 0 0 
-1.30273 1.00586 -3.55664 
181 0 0 
-1.29102 1.00977 -3.57031 
178 0 0 
-1.27734 1.0127 -3.58008 
172 0 0 
-1.26367 1.01563 -3.58984 
165 0 0 
-1.24805 1.0166 -3.59375 
159 0 0 
-1.23145 1.0166 -3.5957 
155 0 0 
-1.21484 1.0166 -3.5957 
153 0 0 
-1.19727 1.0166 -3.59375 
153 0 0 
-1.17969 1.01563 -3.5918 
153 0 0 
-1.16211 1.01563 -3.58984 
151 0 0 
-1.14355 1.01465 -3.58789 
149 0 0 
-1.12598 1.01367 -3.58398 
148 0 0 
-1.1084 1.0127 -3.58008 
149 0 0 
-1.08984 1.01172 -3.57617 
151 0 0 
-1.07129 1.01074 -3.57227 
155 0 0 
-1.05371 1.00977 -3.56836 
158 0 0 
-1.03711 1.00879 -3.56836 
161 0 0 
-1.02051 1.00977 -3.57031 
160 0 0 
-1.00488 1.01172 -3.57422 
157 0 0 
-0.990234 1.01367 -3.58398 
154 0 0 
-0.975586 1.01563 -3.5918 
151 0 0 
-0.960938 1.01758 -3.59961 
147 0 0 
-0.945801 1.02051 -3.60742 
141 0 0 
-0.930664 1.02246 -3.61523 
138 0 0 
-0.915039 1.02441 -3.62109 
135 0 0 
-0.898926 1.02539 -3.625 
134 0 0 
-0.881836 1.02539 -3.625 
134 0 0 
-0.864746 1.02539 -3.625 
136 0 0 
-0.847168 1.02441 -3.62305 
138 0 0 
-0.82959 1.02441 -3.62109 
139 0 0 
-0.8125 1.02441 -3.62305 
138 0 0 
-0.796387 1.02539 -3.62695 
135 0 0 
-0.780273 1.02734 -3.63086 
131 0 0 
-0.763672 1.02832 -3.63477 
130 0 0 
-0.74707 1.02832 -3.63672 
131 0 0 
-0.72998 1.0293 -3.63672 
134 0 0 
-0.712402 1.02832 -3.63672 
141 0 0 
-0.694336 1.02734 -3.63086 
150 0 0 
-0.675781 1.02539 -3.625 
161 0 0 
-0.656738 1.02246 -3.61328 
170 0 0 
-0.637695 1.01953 -3.60352 
175 0 0 
-0.619141 1.01563 -3.5918 
177 0 0 
-0.600586 1.01367 -3.58398 
178 0 0 
-0.58252 1.01172 -3.57813 
177 0 0 
-0.56543 1.01172 -3.57617 
175 0 0 
-0.548828 1.01172 -3.57617 
172 0 0 
-0.532227 1.0127 -3.58008 
166 0 0 
-0.515625 1.01367 -3.58398 
160 0 0 
-0.499023 1.01367 -3.58594 
155 0 0 
-0.482422 1.01465 -3.58789 
152 0 0 
-0.465576 1.01465 -3.58789 
149 0 0 
-0.448486 1.01465 -3.58789 
145 0 0 
-0.431641 1.01563 -3.58984 
139 0 0 
-0.414551 1.01465 -3.58789 
139 0 0 
-0.397461 1.01465 -3.58594 
137 0 0 
-0.380127 1.01367 -3.58398 
135 0 0 
-0.362549 1.01172 -3.57617 
135 0 0 
-0.344971 1.00977 -3.56836 
135 0 0 
-0.327393 1.00781 -3.5625 
138 0 0 
-0.309814 1.00586 -3.55469 
144 0 0 
-0.292725 1.00488 -3.55078 
149 0 0 
-0.275879 1.00488 -3.55273 
153 0 0 
-0.259766 1.00684 -3.55859 
153 0 0 
-0.243652 1.00977 -3.57031 
149 0 0 
-0.227783 1.01465 -3.58594 
141 0 0 
-0.212036 1.02051 -3.60742 
131 0 0 
-0.196289 1.02734 -3.63086 
119 0 0 
-0.18042 1.03516 -3.6582 
111 0 0 
-0.164429 1.04297 -3.6875 
106 0 0 
-0.148315 1.05176 -3.71875 
102 0 0 
-0.131836 1.06152 -3.75195 
99 0 0 
-0.11499 1.06934 -3.78125 
96 0 0 
-0.0977173 1.07617 -3.80664 
93 0 0 
-0.0800781 1.08203 -3.82422 
91 0 0 
-0.0621643 1.08496 -3.83398 
90 0 0 
-0.0440674 1.08496 -3.83789 
90 0 0 
-0.0258942 1.08496 -3.83594 
90 0 0 
-0.00774384 1.08398 -3.83203 
91 0 0 
0.0103607 1.08203 -3.82422 
92 0 0 
0.0283051 1.07617 -3.80469 
93 0 0 
0.0462952 1.07617 -3.80469 
94 0 0 
0.0643921 1.07813 -3.81055 
93 0 0 
0.0831299 1.08691 -3.8418 
91 0 0 
0.101685 1.09082 -3.85547 
89 0 0 
0.120361 1.09473 -3.87109 
86 0 0 
0.139282 1.09961 -3.88672 
84 0 0 
0.158081 1.10254 -3.89648 
81 0 0 
0.17688 1.10449 -3.90625 
78 0 0 
0.195068 1.10352 -3.90039 
77 0 0 
0.214355 1.10742 -3.91602 
72 0 0 
0.233154 1.10938 -3.91992 
68 0 0 
0.251953 1.11035 -3.92383 
65 0 0 
0.270752 1.11133 -3.92773 
63 0 0 
0.289795 1.1123 -3.93359 
61 0 0 
0.308594 1.11328 -3.93555 
60 0 0 
0.326416 1.11133 -3.92773 
61 0 0 
0.344482 1.10938 -3.92188 
62 0 0 
0.364258 1.11328 -3.93555 
59 0 0 
0.382324 1.11133 -3.92773 
61 0 0 
0.399658 1.10742 -3.91602 
64 0 0 
0.417236 1.10449 -3.90625 
68 0 0 
0.434814 1.10352 -3.90039 
69 0 0 
0.451904 1.09961 -3.88867 
73 0 0 
0.468994 1.09668 -3.87695 
71 0 0 
0.486816 1.0957 -3.87305 
75 0 0 
0.504883 1.09473 -3.87109 
76 0 0 
0.523438 1.0957 -3.87305 
76 0 0 
0.541992 1.09668 -3.87695 
75 0 0 
0.560547 1.09668 -3.87695 
79 0 0 
0.579102 1.09766 -3.87891 
76 0 0 
0.598145 1.09863 -3.88281 
75 0 0 
0.619141 1.10254 -3.89844 
70 0 0 
0.633789 1.09668 -3.87695 
77 0 0 
0.65332 1.09863 -3.88281 
75 0 0 
0.671387 1.09863 -3.88281 
75 0 0 
0.689941 1.09863 -3.88281 
67 0 0 
0.708496 1.09863 -3.88477 
67 0 0 
0.726563 1.09766 -3.88086 
67 0 0 
0.746582 1.10059 -3.89063 
64 0 0 
0.766113 1.10254 -3.89648 
62 0 0 
0.781738 1.09863 -3.88281 
64 0 0 
0.803711 1.10254 -3.89844 
70 0 0 
0.824707 1.10645 -3.91016 
66 0 0 
0.853027 1.11914 -3.95703 
58 0 0 
0.873047 1.12109 -3.96289 
58 0 0 
0.894531 1.12402 -3.97461 
58 0 0 
0.912598 1.12402 -3.97266 
58 0 0 
0.931152 1.12305 -3.9707 
58 0 0 
0.949219 1.12207 -3.9668 
58 0 0 
0.96875 1.12305 -3.9707 
58 0 0 
0.980957 1.11523 -3.94336 
58 0 0 
0.99707 1.1123 -3.93359 
58 0 0 
1.0166 1.11426 -3.9375 
59 0 0 
1.03125 1.10938 -3.92383 
63 0 0 
1.04492 1.10449 -3.90625 
70 0 0 
1.05664 1.09766 -3.88086 
77 0 0 
1.06738 1.08984 -3.85156 
83 0 0 
1.07617 1.08008 -3.81836 
88 0 0 
1.08301 1.06934 -3.78125 
92 0 0 
1.08984 1.05859 -3.74219 
96 0 0 
1.09668 1.04883 -3.70703 
100 0 0 
1.10547 1.04004 -3.67578 
104 0 0 
1.11523 1.0332 -3.65234 
108 0 0 
1.12695 1.02832 -3.63477 
114 0 0 
1.14063 1.02441 -3.62109 
122 0 0 
1.1543 1.02148 -3.61133 
131 0 0 
1.16699 1.01758 -3.59961 
140 0 0 
1.17871 1.01367 -3.58398 
152 0 0 
1.18848 1.00684 -3.55859 
167 0 0 
1.19336 0.997559 -3.52539 
180 0 0 
1.19727 0.986328 -3.48633 
187 0 0 
1.19824 0.974121 -3.44336 
194 0 0 
1.19922 0.961914 -3.39844 
201 0 0 
1.20117 0.951172 -3.36133 
208 0 0 
1.20508 0.941406 -3.32617 
214 0 0 
1.20996 0.932617 -3.29688 
220 0 0 
1.21484 0.924805 -3.26953 
224 0 0 
1.22168 0.917969 -3.24414 
229 0 0 
1.22852 0.911621 -3.22266 
239 0 0 
1.23535 0.90625 -3.20313 
239 0 0 
1.24414 0.900879 -3.18359 
244 0 0 
1.25098 0.895508 -3.16406 
249 0 0 
1.25684 0.88916 -3.14258 
254 1 0 
1.26074 0.881348 -3.11523 
254 9 0 
1.26367 0.873047 -3.08594 
254 19 0 
1.26367 0.862793 -3.05078 
254 28 0 
1.2627 0.853027 -3.01563 
254 39 0 
1.25879 0.840332 -2.9707 
254 50 0 
1.25195 0.82666 -2.92188 
254 61 0 
1.24414 0.8125 -2.87305 
254 72 0 
1.24023 0.800781 -2.83203 
254 83 0 
1.23828 0.791504 -2.79883 
254 93 0 
1.23926 0.783691 -2.76953 
254 101 0 
1.24219 0.777344 -2.74805 
254 109 0 
1.24805 0.772949 -2.73242 
254 115 0 
1.25684 0.770508 -2.72461 
254 118 0 
1.26953 0.770508 -2.72266 
254 118 0 
1.28809 0.773438 -2.73438 
254 113 0 
1.3125 0.780273 -2.75781 
254 104 0 
1.34277 0.790527 -2.79297 
254 91 0 
1.38086 0.805176 -2.8457 
254 75 0 
1.42578 0.823242 -2.91016 
254 56 0 
1.48047 0.84668 -2.99219 
254 34 0 
1.54004 0.872559 -3.08398 
254 9 0 
1.61426 0.905762 -3.20117 
239 0 0 
1.69434 0.941895 -3.32813 
214 0 0 
1.76367 0.97168 -3.43359 
194 0 0 
1.81836 0.992676 -3.50781 
177 0 0 
1.89258 1.02344 -3.61719 
0 0 0 
2.01367 1.00684 -3.55859 
172 0 0 
2.01953 1.00195 -3.54102 
144 0 0 
2.06641 1.0166 -3.5957 
125 0 0 
2.02734 0.989258 -3.49609 
195 0 0 
1.63672 0.791992 -2.79883 
254 215 0 
1.58301 0.760254 -2.68555 
254 152 0 
1.48438 0.707031 -2.49805 
254 184 0 
1.44727 0.684082 -2.41797 
254 210 0 
1.43066 0.67041 -2.37109 
254 224 0 
1.36621 0.635254 -2.24609 
251 254 3 
1.34766 0.621582 -2.19727 
233 254 21 
1.32324 0.605957 -2.14063 
212 254 42 
1.32129 0.600586 -2.12305 
193 254 61 
1.31934 0.595215 -2.10352 
166 254 88 
1.31934 0.590332 -2.08789 
135 254 119 
1.31641 0.584961 -2.06641 
135 254 119 
1.31641 0.581055 -2.05273 
126 254 128 
1.31934 0.577637 -2.04297 
119 254 135 
1.32227 0.574707 -2.03125 
114 254 140 
1.32715 0.572754 -2.02539 
111 254 143 
1.33496 0.571777 -2.02148 
109 254 145 
1.34375 0.571289 -2.01953 
107 254 147 
1.35059 0.570801 -2.01758 
106 254 148 
1.35938 0.570313 -2.01563 
105 254 149 
1.36523 0.568848 -2.00977 
104 254 150 
1.36816 0.565918 -2 
102 254 152 
1.36816 0.562012 -1.9873 
99 254 155 
1.36426 0.556641 -1.96777 
95 254 159 
1.36035 0.55127 -1.94824 
90 254 164 
1.34766 0.54248 -1.91797 
84 254 170 
1.33984 0.535645 -1.89355 
78 254 176 
1.33203 0.528809 -1.87012 
72 254 182 
1.3252 0.522461 -1.84766 
65 254 188 
1.31934 0.51709 -1.82813 
59 254 195 
1.31348 0.511719 -1.80859 
54 254 200 
1.30957 0.506348 -1.79004 
48 254 206 
1.30469 0.501465 -1.77246 
41 254 213 
1.2998 0.496338 -1.75391 
36 254 218 
1.29688 0.492188 -1.73926 
31 254 223 
1.29395 0.488037 -1.72559 
26 254 228 
1.29297 0.484619 -1.71289 
21 254 233 
1.29395 0.481934 -1.70313 
17 254 237 
1.29492 0.479248 -1.69434 
13 254 241 
1.29688 0.477051 -1.68652 
9 254 245 
1.29883 0.474854 -1.67773 
6 254 248 
1.30078 0.4729 -1.6709 
2 254 252 
1.30273 0.470459 -1.66309 
0 253 254 
1.30371 0.468262 -1.65527 
0 249 254 
1.30664 0.466309 -1.64844 
0 247 254 
1.30859 0.464355 -1.64063 
0 244 254 
1.31055 0.462402 -1.63379 
0 240 254 
1.3125 0.460205 -1.62695 
0 238 254 
1.31348 0.457764 -1.61816 
0 235 254 
1.31348 0.455078 -1.6084 
0 232 254 
1.3125 0.452393 -1.59863 
0 229 254 
1.31152 0.449463 -1.58887 
0 225 254 
1.31055 0.446289 -1.57813 
0 221 254 
1.30859 0.443359 -1.56641 
0 218 254 
1.30566 0.439941 -1.55469 
0 215 254 
1.30273 0.436523 -1.54297 
0 211 254 
1.29883 0.432373 -1.52832 
0 207 254 
1.29297 0.428223 -1.51367 
0 203 254 
1.28613 0.423584 -1.49707 
0 198 254 
1.28027 0.419434 -1.48242 
0 194 254 
1.27637 0.415771 -1.46973 
0 189 254 
1.27246 0.412354 -1.45703 
0 185 254 
1.27148 0.409668 -1.44824 
0 181 254 
1.27148 0.407715 -1.44141 
0 175 254 
1.27539 0.406494 -1.4375 
0 175 254 
1.2793 0.405762 -1.43457 
0 173 254 
1.28516 0.405518 -1.43359 
0 171 254 
1.29199 0.405518 -1.43359 
0 170 254 
1.29785 0.405273 -1.43164 
0 159 254 
1.30371 0.405029 -1.43066 
0 159 254 
1.30957 0.404541 -1.42969 
0 159 254 
1.31348 0.403809 -1.42676 
0 157 254 
1.31738 0.402832 -1.42383 
0 155 254 
1.31934 0.401611 -1.41895 
0 153 254 
1.32031 0.399902 -1.41309 
0 150 254 
1.32129 0.398193 -1.40723 
0 147 254 
1.32227 0.396484 -1.40137 
0 143 254 
1.32227 0.394287 -1.39355 
0 138 254 
1.32324 0.392578 -1.3877 
0 135 254 
1.3252 0.391357 -1.38281 
0 131 254 
1.32715 0.389893 -1.37793 
0 127 254 
1.33008 0.388672 -1.37402 
0 124 254 
1.33301 0.387939 -1.37109 
0 121 254 
1.33789 0.387207 -1.36914 
0 120 254 
1.3418 0.386719 -1.36719 
0 118 254 
1.3457 0.385986 -1.36426 
0 116 254 
1.34766 0.384521 -1.3584 
0 113 254 
1.35254 0.384277 -1.35742 
0 112 254 
1.3584 0.383789 -1.35645 
0 112 254 
1.36328 0.383545 -1.35547 
0 112 254 
-1.25684 0.366943 -1.31836 
0 103 254 
-1.25098 0.367188 -1.31934 
0 103 254 
-1.24512 0.367188 -1.31934 
0 103 254 
-1.23926 0.367432 -1.32031 
0 103 254 
-1.23535 0.36792 -1.32227 
0 104 254 
-1.23145 0.368896 -1.32617 
0 105 254 
-1.22949 0.369873 -1.33008 
0 106 254 
-1.22852 0.371582 -1.33594 
0 107 254 
-1.22754 0.373291 -1.3418 
0 109 254 
-1.22754 0.375244 -1.34863 
0 112 254 
-1.22852 0.377441 -1.35645 
0 117 254 
-1.22949 0.379639 -1.36523 
0 121 254 
-1.23047 0.381836 -1.37305 
0 126 254 
-1.23047 0.384277 -1.38086 
0 132 254 
-1.23145 0.386475 -1.38867 
0 136 254 
-1.23242 0.388672 -1.39648 
0 140 254 
-1.23145 0.390625 -1.4043 
0 144 254 
-1.23145 0.392822 -1.41211 
0 153 254 
-1.23242 0.39502 -1.41992 
0 153 254 
-1.23242 0.397217 -1.42773 
0 157 254 
-1.2334 0.399902 -1.4375 
0 162 254 
-1.23438 0.402344 -1.44629 
0 166 254 
-1.23535 0.404785 -1.45508 
0 170 254 
-1.23633 0.407471 -1.46387 
0 174 254 
-1.23633 0.409912 -1.47363 
0 179 254 
-1.2373 0.412354 -1.48242 
0 182 254 
-1.2373 0.414795 -1.49121 
0 186 254 
-1.23926 0.417725 -1.50098 
0 191 254 
-1.24121 0.420654 -1.5127 
0 195 254 
-1.24316 0.424072 -1.52441 
0 201 254 
-1.24609 0.42749 -1.53613 
0 205 254 
-1.24805 0.430908 -1.54883 
0 210 254 
-1.25 0.433838 -1.55957 
0 214 254 
-1.25098 0.437012 -1.57031 
0 218 254 
-1.25293 0.439941 -1.58203 
0 222 254 
-1.25293 0.442871 -1.5918 
0 226 254 
-1.25391 0.445801 -1.60254 
0 230 254 
-1.25488 0.44873 -1.61328 
0 235 254 
-1.25488 0.45166 -1.62402 
0 239 254 
-1.25586 0.454834 -1.63477 
0 244 254 
-1.25781 0.458252 -1.64648 
0 248 254 
-1.25781 0.461182 -1.6582 
0 253 254 
-1.25977 0.4646 -1.66992 
3 254 251 
-1.25977 0.467773 -1.68066 
8 254 246 
-1.25977 0.470459 -1.69141 
13 254 241 
-1.25977 0.473633 -1.70215 
18 254 236 
-1.26074 0.476807 -1.71387 
22 254 232 
-1.26074 0.47998 -1.72559 
26 254 228 
-1.26074 0.483398 -1.7373 
30 254 223 
-1.26172 0.487061 -1.75 
34 254 220 
-1.2627 0.490479 -1.76367 
37 254 217 
-1.26367 0.494141 -1.77637 
41 254 213 
-1.26367 0.497559 -1.78809 
44 254 210 
-1.26465 0.500977 -1.80176 
48 254 206 
-1.26563 0.504883 -1.81445 
53 254 201 
-1.2666 0.508789 -1.8291 
57 254 197 
-1.26855 0.512695 -1.84375 
61 254 193 
-1.26953 0.51709 -1.8584 
66 254 188 
-1.27148 0.520996 -1.87402 
71 254 183 
-1.27148 0.524902 -1.8877 
75 254 179 
-1.27246 0.528809 -1.90234 
79 254 175 
-1.27246 0.532715 -1.91602 
84 254 170 
-1.27246 0.536621 -1.92969 
88 254 166 
-1.27344 0.541016 -1.94531 
92 254 162 
-1.27441 0.54541 -1.95996 
97 254 157 
-1.27539 0.549805 -1.97656 
102 254 152 
-1.27637 0.554199 -1.99219 
107 254 147 
-1.27734 0.558594 -2.00781 
113 254 141 
-1.27734 0.562988 -2.02344 
120 254 134 
-1.27832 0.567383 -2.03906 
128 254 126 
-1.27832 0.571777 -2.05469 
148 254 106 
-1.27832 0.576172 -2.07031 
148 254 106 
-1.27832 0.580566 -2.08789 
164 254 90 
-1.27832 0.585449 -2.10352 
185 254 69 
-1.28027 0.59082 -2.12305 
204 254 50 
-1.28125 0.596191 -2.14258 
216 254 38 
-1.2832 0.601563 -2.16211 
225 254 29 
-1.28516 0.607422 -2.18359 
233 254 21 
-1.28809 0.61377 -2.20508 
241 254 13 
-1.29102 0.620117 -2.22852 
249 254 5 
-1.29395 0.626953 -2.25195 
254 252 0 
-1.29688 0.633301 -2.27539 
254 244 0 
-1.2998 0.639648 -2.30078 
254 236 0 
-1.30273 0.646973 -2.32422 
254 228 0 
-1.30664 0.654297 -2.35156 
254 221 0 
-1.30957 0.661621 -2.37695 
254 212 0 
-1.31152 0.668457 -2.40234 
254 203 0 
-1.31445 0.675293 -2.42773 
254 195 0 
-1.31543 0.681641 -2.45117 
254 189 0 
-1.31445 0.6875 -2.47266 
254 183 0 
-1.31445 0.693848 -2.49414 
254 178 0 
-1.31445 0.699707 -2.51563 
254 171 0 
-1.31543 0.707031 -2.54102 
254 165 0 
-1.31738 0.714844 -2.56836 
254 157 0 
-1.32227 0.723633 -2.60156 
254 149 0 
-1.32715 0.733398 -2.63477 
254 141 0 
-1.33203 0.743164 -2.66992 
254 133 0 
-1.33691 0.75293 -2.70703 
254 122 0 
-1.34082 0.762695 -2.74023 
254 108 0 
-1.34473 0.771973 -2.77539 
254 95 0 
-1.34668 0.780762 -2.80664 
254 85 0 
-1.34766 0.789063 -2.83594 
254 75 0 
-1.34668 0.796387 -2.86328 
254 68 0 
-1.34375 0.803223 -2.88672 
254 61 0 
-1.34082 0.809082 -2.9082 
254 54 0 
-1.33496 0.814453 -2.92773 
254 49 0 
-1.33105 0.819824 -2.94727 
254 43 0 
-1.32617 0.825684 -2.96875 
254 37 0 
-1.32324 0.833008 -2.99414 
254 29 0 
-1.32227 0.841309 -3.02539 
254 21 0 
-1.3252 0.852051 -3.0625 
254 10 0 
-1.3291 0.864258 -3.10547 
254 0 0 
-1.33398 0.877441 -3.1543 
245 0 0 
-1.33984 0.891113 -3.20313 
236 0 0 
-1.34473 0.904785 -3.25195 
228 0 0 
-1.34863 0.917969 -3.29883 
219 0 0 
-1.35059 0.930176 -3.34375 
212 0 0 
-1.35156 0.941406 -3.38477 
205 0 0 
-1.35059 0.95166 -3.42188 
199 0 0 
-1.34668 0.960938 -3.45313 
195 0 0 
-1.34082 0.968262 -3.48047 
191 0 0 
-1.33301 0.974609 -3.50195 
188 0 0 
-1.32324 0.97998 -3.52148 
186 0 0 
-1.3125 0.984375 -3.53906 
180 0 0 
-1.30078 0.988281 -3.55273 
180 0 0 
-1.28906 0.992188 -3.56641 
177 0 0 
-1.27637 0.995605 -3.57813 
172 0 0 
-1.2627 0.998047 -3.58789 
165 0 0 
-1.24805 0.999512 -3.59375 
160 0 0 
-1.23242 1 -3.5957 
157 0 0 
-1.21484 1 -3.59766 
155 0 0 
-1.19824 1 -3.5957 
156 0 0 
-1.18066 1 -3.5957 
156 0 0 
-1.16309 0.999512 -3.59375 
155 0 0 
-1.14453 0.998535 -3.58984 
154 0 0 
-1.12695 0.997559 -3.58594 
155 0 0 
-1.10742 0.996094 -3.58008 
156 0 0 
-1.08887 0.994141 -3.57422 
159 0 0 
-1.07031 0.992676 -3.56836 
163 0 0 
-1.05273 0.991699 -3.56445 
165 0 0 
-1.03516 0.991211 -3.5625 
167 0 0 
-1.01855 0.991699 -3.56445 
165 0 0 
-1.00293 0.992676 -3.56836 
161 0 0 
-0.988281 0.994629 -3.57617 
157 0 0 
-0.973633 0.99707 -3.58398 
152 0 0 
-0.958984 0.999512 -3.59375 
147 0 0 
-0.944336 1.00195 -3.60156 
141 0 0 
-0.929199 1.00391 -3.60938 
138 0 0 
-0.913574 1.00586 -3.61523 
135 0 0 
-0.897461 1.00684 -3.61914 
134 0 0 
-0.880859 1.00684 -3.62109 
135 0 0 
-0.86377 1.00684 -3.62109 
137 0 0 
-0.846191 1.00684 -3.61914 
139 0 0 
-0.829102 1.00684 -3.61914 
140 0 0 
-0.812012 1.00684 -3.62109 
139 0 0 
-0.79541 1.00781 -3.62305 
136 0 0 
-0.778809 1.00781 -3.625 
133 0 0 
-0.762207 1.00879 -3.62695 
133 0 0 
-0.745117 1.00879 -3.62695 
135 0 0 
-0.728027 1.00879 -3.62695 
141 0 0 
-0.710449 1.00879 -3.62695 
149 0 0 
-0.693359 1.00781 -3.625 
158 0 0 
-0.675293 1.00684 -3.62109 
167 0 0 
-0.657227 1.00586 -3.61523 
172 0 0 
-0.638672 1.00391 -3.60742 
175 0 0 
-0.620117 1.00098 -3.59961 
177 0 0 
-0.602051 0.999512 -3.5918 
177 0 0 
-0.583984 0.997559 -3.58594 
176 0 0 
-0.566895 0.99707 -3.58398 
173 0 0 
-0.549805 0.99707 -3.58398 
168 0 0 
-0.532715 0.997559 -3.58594 
163 0 0 
-0.516113 0.998047 -3.58789 
157 0 0 
-0.499268 0.998047 -3.58789 
154 0 0 
-0.482422 0.998047 -3.58789 
153 0 0 
-0.465332 0.997559 -3.58594 
152 0 0 
-0.448242 0.997559 -3.58594 
151 0 0 
-0.430908 0.996582 -3.58398 
149 0 0 
-0.413818 0.996582 -3.58203 
149 0 0 
-0.396729 0.995605 -3.57813 
147 0 0 
-0.379395 0.994629 -3.57617 
145 0 0 
-0.361816 0.993164 -3.57031 
144 0 0 
-0.344238 0.991211 -3.5625 
144 0 0 
-0.32666 0.989258 -3.55664 
146 0 0 
-0.309326 0.987793 -3.55078 
149 0 0 
-0.29248 0.986816 -3.54688 
152 0 0 
-0.275879 0.987793 -3.55078 
153 0 0 
-0.259521 0.989746 -3.55859 
149 0 0 
-0.243896 0.994141 -3.57227 
141 0 0 
-0.228149 0.999512 -3.5918 
133 0 0 
-0.212646 1.00586 -3.61523 
121 0 0 
-0.196899 1.01367 -3.64258 
112 0 0 
-0.181274 1.02246 -3.67383 
106 0 0 
-0.165283 1.03125 -3.70703 
103 0 0 
-0.149048 1.04004 -3.74023 
99 0 0 
-0.132568 1.0498 -3.77344 
96 0 0 
-0.115601 1.05762 -3.80273 
93 0 0 
-0.0982056 1.06348 -3.82422 
91 0 0 
-0.0804443 1.06836 -3.8418 
90 0 0 
-0.0624084 1.07129 -3.84961 
89 0 0 
-0.0441895 1.07129 -3.84961 
89 0 0 
-0.0259705 1.07031 -3.84766 
90 0 0 
-0.00776291 1.06836 -3.8418 
90 0 0 
0.0103455 1.0625 -3.81836 
92 0 0 
0.0283661 1.06055 -3.8125 
93 0 0 
0.0464172 1.06055 -3.8125 
93 0 0 
0.0645142 1.06152 -3.81836 
92 0 0 
0.0831909 1.06934 -3.8457 
90 0 0 
0.101685 1.07324 -3.85742 
88 0 0 
0.120361 1.07617 -3.87109 
86 0 0 
0.138916 1.0791 -3.87891 
84 0 0 
0.157593 1.08105 -3.88477 
82 0 0 
0.176147 1.08203 -3.88867 
80 0 0 
0.19458 1.08203 -3.89063 
78 0 0 
0.213257 1.08398 -3.89648 
75 0 0 
0.232056 1.08496 -3.90039 
71 0 0 
0.250732 1.08691 -3.9082 
68 0 0 
0.269775 1.08887 -3.91406 
65 0 0 
0.288818 1.09082 -3.92188 
63 0 0 
0.307861 1.09277 -3.92773 
62 0 0 
0.326416 1.09277 -3.92773 
62 0 0 
0.345215 1.09277 -3.92773 
63 0 0 
0.36377 1.09277 -3.92969 
65 0 0 
0.381836 1.09082 -3.92383 
67 0 0 
0.399658 1.08887 -3.91602 
68 0 0 
0.416504 1.08496 -3.90039 
70 0 0 
0.43457 1.08398 -3.89648 
71 0 0 
0.451416 1.08008 -3.88477 
75 0 0 
0.461914 1.0625 -3.81836 
88 0 0 
0.479004 1.05957 -3.81055 
90 0 0 
0.49707 1.05957 -3.81055 
84 0 0 
0.514648 1.05957 -3.81055 
84 0 0 
0.54248 1.07813 -3.87695 
70 0 0 
0.561035 1.0791 -3.87891 
76 0 0 
0.580078 1.08008 -3.88281 
75 0 0 
0.598633 1.08008 -3.88477 
75 0 0 
0.618164 1.08301 -3.89258 
72 0 0 
0.638184 1.08496 -3.90039 
69 0 0 
0.650879 1.07617 -3.86914 
79 0 0 
0.669434 1.07617 -3.86914 
79 0 0 
0.687988 1.07715 -3.87305 
69 0 0 
0.706055 1.07617 -3.86914 
70 0 0 
0.725586 1.07813 -3.87695 
68 0 0 
0.746094 1.08105 -3.88867 
65 0 0 
0.766602 1.08496 -3.89844 
62 0 0 
0.787109 1.08691 -3.9082 
59 0 0 
0.805176 1.08594 -3.90625 
68 0 0 
0.832031 1.09766 -3.94727 
58 0 0 
0.852051 1.09863 -3.95117 
58 0 0 
0.872559 1.10156 -3.96094 
58 0 0 
0.890625 1.10059 -3.95898 
58 0 0 
0.908691 1.10059 -3.95508 
58 0 0 
0.930664 1.10449 -3.96875 
58 0 0 
0.949219 1.10352 -3.9668 
58 0 0 
0.967773 1.10352 -3.9668 
58 0 0 
0.986816 1.10352 -3.9668 
58 0 0 
0.99707 1.09375 -3.93359 
58 0 0 
1.0166 1.0957 -3.93945 
58 0 0 
1.03125 1.0918 -3.92383 
62 0 0 
1.04297 1.08398 -3.89648 
70 0 0 
1.05469 1.07715 -3.875 
77 0 0 
1.06934 1.07324 -3.85938 
81 0 0 
1.07813 1.06445 -3.82617 
87 0 0 
1.08594 1.05371 -3.78906 
91 0 0 
1.09277 1.04395 -3.75195 
95 0 0 
1.09961 1.03418 -3.7168 
99 0 0 
1.1084 1.02539 -3.68555 
103 0 0 
1.11816 1.01855 -3.66211 
107 0 0 
1.12988 1.01367 -3.64453 
112 0 0 
1.14258 1.00977 -3.62891 
120 0 0 
1.15723 1.00684 -3.61914 
129 0 0 
1.16992 1.00293 -3.60547 
138 0 0 
1.18066 0.998535 -3.58984 
149 0 0 
1.18945 0.991699 -3.56445 
165 0 0 
1.19531 0.982422 -3.53125 
179 0 0 
1.19824 0.971191 -3.49023 
187 0 0 
1.19922 0.958984 -3.44727 
194 0 0 
1.2002 0.946777 -3.40234 
201 0 0 
1.20215 0.935547 -3.36328 
208 0 0 
1.20605 0.92627 -3.32813 
214 0 0 
1.20996 0.91748 -3.29883 
220 0 0 
1.21484 0.90918 -3.26953 
225 0 0 
1.2207 0.902344 -3.24219 
230 0 0 
1.22754 0.895508 -3.21875 
240 0 0 
1.2334 0.889648 -3.19727 
240 0 0 
1.24023 0.883789 -3.17578 
245 0 0 
1.24707 0.877441 -3.1543 
251 0 0 
1.25195 0.870605 -3.12891 
254 4 0 
1.25488 0.862793 -3.10156 
254 12 0 
1.25684 0.854004 -3.07031 
254 22 0 
1.25781 0.844727 -3.03516 
254 31 0 
1.25879 0.835938 -3.00391 
254 40 0 
1.25488 0.824219 -2.96289 
254 51 0 
1.24707 0.810059 -2.91211 
254 63 0 
1.23828 0.79541 -2.85938 
254 75 0 
1.23535 0.785156 -2.82227 
254 85 0 
1.23535 0.776367 -2.79102 
254 94 0 
1.2373 0.769043 -2.76563 
254 103 0 
1.24121 0.763672 -2.74414 
254 110 0 
1.24707 0.759277 -2.73047 
254 116 0 
1.25586 0.756836 -2.7207 
254 119 0 
1.26855 0.756836 -2.7207 
254 119 0 
1.28613 0.759277 -2.73047 
254 116 0 
1.30859 0.765137 -2.75 
254 108 0 
1.33789 0.774414 -2.7832 
254 96 0 
1.37305 0.787109 -2.82813 
254 81 0 
1.41602 0.804199 -2.89063 
254 62 0 
1.46875 0.826172 -2.96875 
254 40 0 
1.52832 0.851563 -3.06055 
254 15 0 
1.60547 0.885742 -3.18359 
243 0 0 
1.68945 0.923828 -3.32031 
217 0 0 
1.76465 0.955566 -3.43555 
194 0 0 
1.82227 0.978027 -3.51563 
177 0 0 
1.88281 1.00098 -3.59961 
141 0 0 
1.99316 1.01367 -3.64453 
0 0 0 
1.97852 0.998047 -3.58789 
0 0 0 
1.98438 0.992676 -3.56836 
166 0 0 
1.96777 0.976074 -3.50781 
187 0 0 
1.97559 0.971191 -3.49219 
190 0 0 
1.96777 0.959473 -3.44922 
198 0 0 
2.01367 0.974121 -3.5 
141 0 0 
2.12305 1.01855 -3.66211 
109 0 0 
1.53613 0.731445 -2.62891 
254 172 0 
1.49707 0.707031 -2.54102 
254 183 0 
1.43652 0.672363 -2.41797 
254 207 0 
1.41504 0.657715 -2.36328 
254 225 0 
1.38867 0.639648 -2.30078 
254 242 0 
1.35352 0.619141 -2.22461 
245 254 9 
1.33887 0.607422 -2.18359 
229 254 25 
1.31738 0.593262 -2.13281 
206 254 48 
1.31543 0.587891 -2.11328 
183 254 71 
1.31445 0.583008 -2.0957 
160 254 93 
1.31348 0.578613 -2.08008 
134 254 120 
1.31348 0.57373 -2.0625 
134 254 120 
1.31543 0.570313 -2.05078 
126 254 128 
1.31836 0.567871 -2.04102 
120 254 134 
1.32324 0.56543 -2.0332 
116 254 138 
1.3291 0.563965 -2.02734 
112 254 142 
1.33887 0.563965 -2.02734 
110 254 143 
1.34668 0.563477 -2.02539 
109 254 145 
1.35547 0.562988 -2.02344 
108 254 146 
1.36328 0.562012 -2.02148 
106 254 148 
1.36816 0.560059 -2.01367 
105 254 149 
1.37109 0.557617 -2.00391 
102 254 152 
1.36914 0.553223 -1.98828 
98 254 156 
1.36523 0.547852 -1.96875 
94 254 160 
1.34766 0.536621 -1.92969 
87 254 167 
1.34473 0.532227 -1.91406 
83 254 171 
1.33691 0.525879 -1.88965 
77 254 177 
1.3291 0.519043 -1.86621 
71 254 183 
1.32227 0.513184 -1.84473 
64 254 189 
1.31641 0.507324 -1.82422 
59 254 195 
1.3125 0.502441 -1.80664 
53 254 201 
1.30762 0.497559 -1.78809 
47 254 207 
1.30273 0.492432 -1.77051 
41 254 213 
1.2998 0.488037 -1.75391 
36 254 218 
1.29688 0.483887 -1.73926 
31 254 223 
1.29395 0.47998 -1.72559 
26 254 227 
1.29395 0.476807 -1.71387 
22 254 232 
1.29492 0.474365 -1.70508 
18 254 236 
1.2959 0.471924 -1.69629 
14 254 240 
1.29883 0.469971 -1.68945 
11 254 243 
1.30273 0.468262 -1.68262 
7 254 247 
1.30469 0.466309 -1.67578 
4 254 250 
1.30762 0.464355 -1.66895 
1 254 253 
1.30957 0.462402 -1.66211 
0 251 254 
1.31152 0.460205 -1.6543 
0 248 254 
1.31348 0.458252 -1.64648 
0 245 254 
1.31445 0.456055 -1.63867 
0 243 254 
1.31543 0.453369 -1.62988 
0 239 254 
1.31543 0.450928 -1.62109 
0 236 254 
1.31543 0.448242 -1.61035 
0 232 254 
1.3125 0.444824 -1.59863 
0 229 254 
1.31152 0.44165 -1.58789 
0 225 254 
1.30859 0.438477 -1.5752 
0 221 254 
1.30566 0.435059 -1.56348 
0 218 254 
1.30273 0.431396 -1.55078 
0 214 254 
1.29883 0.427734 -1.53711 
0 210 254 
1.29297 0.423584 -1.52246 
0 206 254 
1.28809 0.419434 -1.50781 
0 201 254 
1.28027 0.414551 -1.49023 
0 196 254 
1.27441 0.4104 -1.47559 
0 191 254 
1.26855 0.406494 -1.46094 
0 186 254 
1.2666 0.403564 -1.4502 
0 182 254 
1.26465 0.400879 -1.44141 
0 179 254 
1.2666 0.39917 -1.43555 
0 173 254 
1.27051 0.398438 -1.43164 
0 173 254 
1.27539 0.397949 -1.42969 
0 171 254 
1.28125 0.397461 -1.42871 
0 170 254 
1.28809 0.397461 -1.42871 
0 169 254 
1.29492 0.397461 -1.42871 
0 158 254 
1.30176 0.397461 -1.42871 
0 164 254 
1.30664 0.396973 -1.42676 
0 163 254 
1.31152 0.396484 -1.4248 
0 156 254 
1.31543 0.395508 -1.42188 
0 162 254 
1.31738 0.394287 -1.41699 
0 152 254 
1.31934 0.392822 -1.41211 
0 155 254 
1.32129 0.391357 -1.40723 
0 152 254 
1.32227 0.389648 -1.40137 
0 148 254 
1.32324 0.388184 -1.39453 
0 140 254 
1.32422 0.386475 -1.38867 
0 137 254 
1.32617 0.38501 -1.38379 
0 133 254 
1.3291 0.383789 -1.37988 
0 129 254 
1.33105 0.382813 -1.37598 
0 126 254 
1.33594 0.382324 -1.37402 
0 124 254 
1.34082 0.381592 -1.37207 
0 121 254 
1.34473 0.381104 -1.37012 
0 120 254 
1.34863 0.380371 -1.36719 
0 118 254 
1.35059 0.378906 -1.3623 
0 115 254 
1.35547 0.378662 -1.36035 
0 114 254 
1.36133 0.378418 -1.35938 
0 113 254 
1.36621 0.37793 -1.3584 
0 113 254 
-1.25195 0.361084 -1.32031 
0 103 254 
-1.24414 0.360596 -1.31836 
0 103 254 
-1.23828 0.36084 -1.31934 
0 103 254 
-1.23438 0.361328 -1.32129 
0 104 254 
-1.23047 0.362305 -1.32422 
0 105 254 
-1.22949 0.363525 -1.33008 
0 106 254 
-1.22754 0.36499 -1.33496 
0 107 254 
-1.22656 0.366699 -1.34082 
0 109 254 
-1.22656 0.368652 -1.34766 
0 112 254 
-1.22754 0.37085 -1.35547 
0 116 254 
-1.22852 0.373047 -1.36426 
0 121 254 
-1.22949 0.375244 -1.37207 
0 126 254 
-1.23047 0.377441 -1.37988 
0 131 254 
-1.23047 0.379639 -1.3877 
0 136 254 
-1.23047 0.381592 -1.39453 
0 140 254 
-1.22949 0.383301 -1.40234 
0 144 254 
-1.23047 0.385498 -1.41016 
0 153 254 
-1.23047 0.387695 -1.41797 
0 153 254 
-1.23145 0.390381 -1.42676 
0 157 254 
-1.23242 0.392822 -1.43652 
0 162 254 
-1.2334 0.395264 -1.44531 
0 166 254 
-1.23438 0.397705 -1.4541 
0 170 254 
-1.23535 0.400146 -1.46289 
0 174 254 
-1.23535 0.402588 -1.47266 
0 178 254 
-1.23633 0.405029 -1.48145 
0 182 254 
-1.23633 0.407471 -1.49023 
0 186 254 
-1.23926 0.410645 -1.50098 
0 190 254 
-1.24121 0.413574 -1.5127 
0 195 254 
-1.24316 0.416992 -1.52441 
0 200 254 
-1.24609 0.420166 -1.53613 
0 205 254 
-1.24902 0.423828 -1.5498 
0 210 254 
-1.25195 0.427002 -1.56152 
0 214 254 
-1.25293 0.430176 -1.57227 
0 218 254 
-1.25391 0.433105 -1.58398 
0 222 254 
-1.25488 0.435791 -1.59375 
0 226 254 
-1.25488 0.438477 -1.60352 
0 230 254 
-1.25488 0.441406 -1.61426 
0 235 254 
-1.25488 0.444092 -1.62402 
0 239 254 
-1.25586 0.447021 -1.63477 
0 243 254 
-1.25684 0.450195 -1.64551 
0 248 254 
-1.25781 0.453369 -1.6582 
0 252 254 
-1.25879 0.456543 -1.66895 
3 254 251 
-1.25879 0.459473 -1.67969 
8 254 246 
-1.25977 0.462402 -1.69141 
12 254 242 
-1.25977 0.465576 -1.70215 
17 254 237 
-1.26074 0.46875 -1.71387 
21 254 233 
-1.26074 0.471924 -1.72559 
26 254 228 
-1.26074 0.475098 -1.7373 
30 254 224 
-1.26172 0.47876 -1.75 
33 254 221 
-1.2627 0.482178 -1.76367 
37 254 217 
-1.26465 0.486084 -1.77734 
41 254 213 
-1.26563 0.489746 -1.79004 
45 254 209 
-1.2666 0.493164 -1.80371 
48 254 205 
-1.26758 0.49707 -1.81738 
53 254 201 
-1.26758 0.500488 -1.83105 
57 254 196 
-1.26953 0.504395 -1.8457 
62 254 192 
-1.27148 0.508789 -1.86035 
67 254 187 
-1.27246 0.512695 -1.87598 
71 254 183 
-1.27344 0.516602 -1.88965 
76 254 178 
-1.27344 0.520508 -1.9043 
80 254 174 
-1.27441 0.524414 -1.91797 
84 254 170 
-1.27344 0.527832 -1.93066 
88 254 166 
-1.27344 0.531738 -1.94531 
92 254 161 
-1.27441 0.536133 -1.95996 
97 254 157 
-1.27441 0.540039 -1.97559 
102 254 152 
-1.27441 0.543945 -1.98926 
107 254 147 
-1.27539 0.54834 -2.00391 
112 254 142 
-1.27539 0.552246 -2.01953 
119 254 135 
-1.27539 0.556641 -2.03516 
126 254 128 
-1.27539 0.561035 -2.05078 
146 254 108 
-1.27539 0.56543 -2.06641 
146 254 108 
-1.27539 0.569824 -2.08398 
161 254 92 
-1.27637 0.574219 -2.09961 
182 254 72 
-1.27734 0.579102 -2.11914 
203 254 51 
-1.2793 0.584961 -2.13867 
215 254 39 
-1.28125 0.590332 -2.16016 
225 254 29 
-1.28418 0.59668 -2.18164 
232 254 22 
-1.28711 0.602539 -2.20313 
241 254 13 
-1.29004 0.609375 -2.22852 
249 254 5 
-1.29297 0.615723 -2.25 
254 252 0 
-1.2959 0.62207 -2.27539 
254 244 0 
-1.29883 0.628906 -2.29883 
254 236 0 
-1.30176 0.635254 -2.32227 
254 228 0 
-1.30469 0.642578 -2.34961 
254 220 0 
-1.30762 0.649414 -2.375 
254 212 0 
-1.31055 0.65625 -2.39844 
254 203 0 
-1.3125 0.663086 -2.42383 
254 195 0 
-1.31348 0.669434 -2.44727 
254 189 0 
-1.31348 0.675293 -2.46875 
254 183 0 
-1.3125 0.681152 -2.49023 
254 177 0 
-1.31348 0.6875 -2.51367 
254 171 0 
-1.31445 0.694336 -2.53906 
254 164 0 
-1.31641 0.702148 -2.56641 
254 157 0 
-1.32129 0.710938 -2.59961 
254 149 0 
-1.3252 0.719727 -2.63281 
254 140 0 
-1.33008 0.729492 -2.66797 
254 133 0 
-1.33496 0.73877 -2.70117 
254 123 0 
-1.33887 0.748047 -2.73633 
254 109 0 
-1.3418 0.757324 -2.76953 
254 96 0 
-1.34375 0.765625 -2.80078 
254 85 0 
-1.34473 0.773926 -2.83008 
254 76 0 
-1.34473 0.781738 -2.85742 
254 68 0 
-1.34277 0.788574 -2.88281 
254 61 0 
-1.33984 0.794922 -2.90625 
254 54 0 
-1.33496 0.800781 -2.92773 
254 48 0 
-1.33105 0.806152 -2.94922 
254 41 0 
-1.32715 0.8125 -2.9707 
254 35 0 
-1.32422 0.819336 -2.99609 
254 27 0 
-1.32324 0.827637 -3.02734 
254 19 0 
-1.3252 0.838379 -3.06445 
254 8 0 
-1.33008 0.850586 -3.10938 
252 0 0 
-1.33691 0.86377 -3.16016 
243 0 0 
-1.34375 0.878418 -3.21094 
234 0 0 
-1.34961 0.892578 -3.26367 
224 0 0 
-1.35449 0.905762 -3.3125 
216 0 0 
-1.35645 0.917969 -3.35547 
209 0 0 
-1.35645 0.928711 -3.39453 
202 0 0 
-1.35352 0.937988 -3.42969 
197 0 0 
-1.34863 0.945801 -3.45898 
193 0 0 
-1.34082 0.952148 -3.48242 
189 0 0 
-1.33203 0.95752 -3.50195 
187 0 0 
-1.32227 0.962402 -3.51953 
185 0 0 
-1.31055 0.966309 -3.5332 
179 0 0 
-1.2998 0.970215 -3.54883 
179 0 0 
-1.28711 0.973633 -3.56055 
176 0 0 
-1.27539 0.977539 -3.57422 
171 0 0 
-1.26172 0.980469 -3.58594 
165 0 0 
-1.24805 0.982422 -3.5918 
161 0 0 
-1.23242 0.983887 -3.59766 
157 0 0 
-1.2168 0.984375 -3.59961 
157 0 0 
-1.19922 0.984863 -3.60156 
157 0 0 
-1.18262 0.984375 -3.59961 
157 0 0 
-1.16406 0.983887 -3.59766 
157 0 0 
-1.14551 0.982422 -3.59375 
158 0 0 
-1.12695 0.980469 -3.58594 
159 0 0 
-1.10742 0.978516 -3.57813 
162 0 0 
-1.08789 0.976563 -3.57031 
166 0 0 
-1.06934 0.974609 -3.56445 
169 0 0 
-1.05078 0.973145 -3.55859 
171 0 0 
-1.0332 0.972656 -3.55664 
171 0 0 
-1.0166 0.973145 -3.55859 
169 0 0 
-1.00098 0.974121 -3.5625 
165 0 0 
-0.986328 0.975586 -3.56836 
159 0 0 
-0.971191 0.977539 -3.57422 
154 0 0 
-0.956543 0.97998 -3.58398 
149 0 0 
-0.941406 0.981934 -3.5918 
144 0 0 
-0.926758 0.984375 -3.59961 
141 0 0 
-0.911621 0.986328 -3.60547 
138 0 0 
-0.895508 0.987305 -3.61133 
137 0 0 
-0.879395 0.988281 -3.61328 
137 0 0 
-0.862305 0.98877 -3.61523 
138 0 0 
-0.845703 0.98877 -3.61523 
140 0 0 
-0.828613 0.989258 -3.61719 
141 0 0 
-0.811523 0.989258 -3.61719 
140 0 0 
-0.794922 0.990234 -3.62109 
138 0 0 
-0.77832 0.990234 -3.62109 
136 0 0 
-0.760742 0.990234 -3.62109 
137 0 0 
-0.743164 0.989258 -3.61719 
141 0 0 
-0.726074 0.989258 -3.61719 
149 0 0 
-0.708984 0.989258 -3.61719 
157 0 0 
-0.691895 0.989258 -3.61719 
165 0 0 
-0.674805 0.989258 -3.61719 
170 0 0 
-0.657227 0.98877 -3.61523 
173 0 0 
-0.639648 0.987793 -3.61133 
174 0 0 
-0.621582 0.986328 -3.60547 
175 0 0 
-0.603516 0.984375 -3.59961 
174 0 0 
-0.585449 0.98291 -3.5957 
172 0 0 
-0.567871 0.982422 -3.59375 
168 0 0 
-0.550781 0.982422 -3.5918 
163 0 0 
-0.53418 0.982422 -3.5918 
158 0 0 
-0.51709 0.982422 -3.5918 
154 0 0 
-0.499756 0.981934 -3.58984 
153 0 0 
-0.482422 0.981445 -3.58789 
153 0 0 
-0.465088 0.980469 -3.58594 
155 0 0 
-0.447754 0.979492 -3.58203 
156 0 0 
-0.43042 0.978516 -3.57813 
157 0 0 
-0.41333 0.978027 -3.57617 
157 0 0 
-0.395996 0.977539 -3.57422 
155 0 0 
-0.378906 0.976563 -3.57031 
153 0 0 
-0.361572 0.975586 -3.56641 
152 0 0 
-0.343994 0.973633 -3.56055 
152 0 0 
-0.32666 0.972168 -3.55469 
153 0 0 
-0.309326 0.970703 -3.55078 
154 0 0 
-0.29248 0.970215 -3.54883 
154 0 0 
-0.276123 0.97168 -3.55273 
152 0 0 
-0.26001 0.974121 -3.5625 
147 0 0 
-0.244263 0.978516 -3.57813 
137 0 0 
-0.22876 0.984863 -3.60156 
126 0 0 
-0.213257 0.992188 -3.62891 
115 0 0 
-0.197754 1 -3.66016 
108 0 0 
-0.182251 1.00977 -3.69531 
103 0 0 
-0.16626 1.01953 -3.73047 
100 0 0 
-0.150024 1.0293 -3.76563 
96 0 0 
-0.133301 1.03809 -3.79492 
93 0 0 
-0.116272 1.0459 -3.82422 
91 0 0 
-0.0987549 1.05176 -3.8457 
89 0 0 
-0.0808716 1.05566 -3.86133 
87 0 0 
-0.0627441 1.05762 -3.86914 
87 0 0 
-0.0444336 1.05762 -3.86914 
87 0 0 
-0.0260925 1.05664 -3.86328 
88 0 0 
-0.00779343 1.05469 -3.85547 
89 0 0 
0.0103836 1.04785 -3.83203 
91 0 0 
0.0284729 1.0459 -3.82617 
92 0 0 
0.0465698 1.0459 -3.82617 
92 0 0 
0.0646973 1.04688 -3.83008 
91 0 0 
0.083313 1.05371 -3.85352 
88 0 0 
0.101807 1.05566 -3.86133 
87 0 0 
0.1203 1.05762 -3.86719 
85 0 0 
0.138672 1.05859 -3.87305 
83 0 0 
0.157104 1.05859 -3.87305 
82 0 0 
0.175415 1.05859 -3.87305 
81 0 0 
0.193604 1.05859 -3.87305 
80 0 0 
0.212158 1.05957 -3.875 
78 0 0 
0.230835 1.06152 -3.88086 
74 0 0 
0.249512 1.0625 -3.88672 
71 0 0 
0.268555 1.06543 -3.89648 
68 0 0 
0.287842 1.06836 -3.91016 
65 0 0 
0.307129 1.07129 -3.91797 
64 0 0 
0.325928 1.07227 -3.92188 
65 0 0 
0.344727 1.07227 -3.92383 
66 0 0 
0.363281 1.07227 -3.92383 
68 0 0 
0.381104 1.07129 -3.91797 
70 0 0 
0.398926 1.06934 -3.91016 
71 0 0 
0.416016 1.06543 -3.89648 
73 0 0 
0.433838 1.06348 -3.89063 
74 0 0 
0.445068 1.04688 -3.82813 
87 0 0 
0.459717 1.03906 -3.80078 
91 0 0 
0.477051 1.03711 -3.79492 
91 0 0 
0.495605 1.03906 -3.80078 
90 0 0 
0.514648 1.04102 -3.80664 
90 0 0 
0.541992 1.05957 -3.875 
67 0 0 
0.559082 1.05762 -3.86719 
79 0 0 
0.578613 1.05957 -3.875 
77 0 0 
0.597656 1.06055 -3.87891 
76 0 0 
0.617188 1.0625 -3.88672 
73 0 0 
0.635742 1.06348 -3.88867 
73 0 0 
0.655762 1.06543 -3.89844 
70 0 0 
0.675293 1.06738 -3.90234 
63 0 0 
0.693848 1.06738 -3.90625 
63 0 0 
0.713379 1.06836 -3.91016 
63 0 0 
0.73291 1.07031 -3.91406 
62 0 0 
0.746094 1.06348 -3.88867 
66 0 0 
0.773926 1.07617 -3.93555 
58 0 0 
0.793457 1.07715 -3.93945 
