ply
format ascii 1.0
comment pointcloud saved from Realsense Viewer
element vertex 1747
property float32 x
property float32 y
property float32 z
end_header
1.30371 0.555664 -2.14258 
1.30078 0.549805 -2.12109 
1.29883 0.54541 -2.10352 
1.29883 0.541016 -2.08789 
1.2998 0.537109 -2.07227 
1.2998 0.533203 -2.05664 
1.30176 0.529785 -2.04492 
1.30273 0.526367 -2.03125 
1.30566 0.523926 -2.02148 
1.31055 0.521973 -2.01367 
1.31738 0.520996 -2.00977 
1.32617 0.520996 -2.00977 
1.33887 0.521973 -2.01367 
1.34863 0.521973 -2.01367 
1.35352 0.520508 -2.00781 
1.34961 0.515137 -1.9873 
1.34863 0.51123 -1.97266 
1.3457 0.506348 -1.9541 
1.33984 0.500977 -1.93262 
1.33398 0.495361 -1.91113 
1.32715 0.489746 -1.88867 
1.31934 0.483398 -1.86523 
1.31348 0.478027 -1.84375 
1.30859 0.473145 -1.82422 
1.30371 0.468506 -1.80664 
1.2998 0.463867 -1.78906 
1.29785 0.459961 -1.77441 
1.29492 0.456055 -1.75977 
1.29297 0.452637 -1.74512 
1.29102 0.449219 -1.73242 
1.29102 0.446289 -1.72168 
1.29199 0.443848 -1.71191 
1.29492 0.442139 -1.70508 
1.29883 0.44043 -1.69922 
1.30371 0.439453 -1.69531 
1.30859 0.438477 -1.69141 
1.31348 0.4375 -1.6875 
1.31738 0.436035 -1.68164 
1.32031 0.43457 -1.67578 
1.32324 0.432617 -1.66895 
1.32324 0.43042 -1.66016 
1.32324 0.427734 -1.65039 
1.32227 0.425049 -1.63867 
1.32031 0.421875 -1.62695 
1.31836 0.418701 -1.61523 
1.31641 0.415527 -1.60254 
1.3125 0.412109 -1.58984 
1.31055 0.408936 -1.57813 
1.30762 0.406006 -1.56543 
1.30371 0.402588 -1.55273 
1.30078 0.39917 -1.53906 
1.2959 0.395508 -1.52539 
1.29004 0.391602 -1.51074 
1.2832 0.387451 -1.49414 
1.27832 0.383789 -1.48047 
1.27441 0.380371 -1.4668 
1.27148 0.377441 -1.45605 
1.27051 0.375244 -1.44727 
1.27246 0.374023 -1.44238 
1.27734 0.373047 -1.43945 
1.28125 0.372314 -1.43652 
1.28613 0.371826 -1.43457 
1.29102 0.371338 -1.43164 
1.29492 0.370605 -1.42871 
1.29785 0.369385 -1.4248 
1.30078 0.368164 -1.41992 
1.30273 0.366943 -1.41504 
1.30469 0.365479 -1.41016 
1.30566 0.364014 -1.4043 
1.30859 0.363037 -1.40039 
1.31152 0.362061 -1.39551 
1.31445 0.36084 -1.3916 
1.31738 0.359863 -1.3877 
1.32031 0.359131 -1.38477 
1.32422 0.358398 -1.38184 
1.32813 0.357422 -1.37891 
1.33203 0.356934 -1.37695 
1.33594 0.356201 -1.37402 
1.34082 0.355713 -1.37207 
1.34375 0.35498 -1.36914 
1.34863 0.354492 -1.36719 
1.35449 0.354248 -1.36621 
1.3584 0.353516 -1.36426 
1.36328 0.353027 -1.3623 
1.35938 0.350586 -1.35156 
-1.2334 0.331055 -1.30078 
-1.2334 0.332764 -1.30762 
-1.23242 0.334229 -1.3125 
-1.22949 0.335205 -1.31641 
-1.22852 0.336426 -1.32129 
-1.22754 0.337891 -1.32813 
-1.22754 0.339844 -1.33496 
-1.22754 0.341553 -1.3418 
-1.22754 0.343262 -1.34863 
-1.22754 0.345215 -1.35547 
-1.22852 0.347168 -1.36426 
-1.22852 0.348877 -1.37109 
-1.22949 0.351074 -1.37891 
-1.22852 0.352783 -1.38574 
-1.22852 0.354492 -1.39258 
-1.22852 0.356689 -1.40137 
-1.22949 0.358643 -1.40918 
-1.22949 0.360596 -1.41699 
-1.23047 0.363037 -1.42578 
-1.23145 0.365234 -1.43555 
-1.23242 0.367676 -1.44434 
-1.2334 0.369873 -1.45313 
-1.23438 0.372314 -1.46191 
-1.23438 0.374512 -1.47168 
-1.23633 0.376953 -1.48145 
-1.2373 0.379639 -1.49121 
-1.23926 0.38208 -1.50098 
-1.24121 0.38501 -1.5127 
-1.24316 0.387939 -1.52441 
-1.24609 0.391113 -1.53613 
-1.24805 0.394287 -1.54883 
-1.25098 0.397217 -1.56055 
-1.25293 0.400391 -1.57227 
-1.25391 0.403076 -1.58398 
-1.25488 0.405762 -1.59375 
-1.25488 0.408203 -1.60352 
-1.25488 0.410645 -1.61328 
-1.25488 0.413086 -1.62305 
-1.25391 0.415283 -1.63184 
-1.25488 0.418213 -1.64258 
-1.25391 0.420654 -1.65332 
-1.25488 0.423584 -1.66406 
-1.25488 0.42627 -1.6748 
-1.25586 0.429199 -1.68652 
-1.25684 0.432129 -1.69824 
-1.25684 0.435059 -1.70898 
-1.25684 0.438232 -1.72168 
-1.25879 0.441406 -1.73438 
-1.25977 0.444824 -1.74707 
-1.2627 0.448486 -1.7627 
-1.26465 0.452393 -1.77734 
-1.26758 0.456543 -1.79395 
-1.26953 0.460449 -1.80859 
-1.27148 0.463867 -1.82227 
-1.27246 0.467529 -1.83691 
-1.27246 0.470947 -1.84961 
-1.27246 0.474121 -1.8623 
-1.27344 0.477783 -1.87695 
-1.27344 0.481201 -1.89063 
-1.27441 0.484863 -1.90527 
-1.27441 0.488281 -1.91797 
-1.27344 0.491455 -1.93066 
-1.27344 0.494873 -1.94434 
-1.27246 0.498291 -1.95703 
-1.27148 0.501465 -1.96973 
-1.27051 0.504883 -1.9834 
-1.27051 0.508301 -1.99805 
-1.27051 0.512207 -2.01367 
-1.27051 0.516113 -2.02734 
-1.27051 0.52002 -2.04297 
-1.26953 0.523438 -2.05664 
-1.26855 0.527344 -2.07227 
-1.26855 0.531738 -2.08789 
-1.26953 0.536133 -2.10547 
-1.27148 0.541016 -2.12695 
-1.27539 0.547363 -2.15039 
-1.2793 0.553223 -2.17188 
-1.28223 0.559082 -2.19727 
-1.28613 0.56543 -2.2207 
-1.29004 0.571289 -2.24414 
-1.29297 0.577637 -2.26953 
-1.29492 0.583496 -2.29102 
-1.29688 0.589355 -2.31445 
-1.2998 0.595215 -2.33984 
-1.30078 0.601074 -2.36133 
-1.30273 0.606934 -2.38477 
-1.30371 0.612793 -2.4082 
-1.30469 0.618652 -2.42969 
-1.30469 0.624512 -2.45313 
-1.30469 0.629883 -2.47461 
-1.30566 0.63623 -2.49805 
-1.30664 0.642578 -2.52344 
-1.30859 0.649414 -2.55078 
-1.31055 0.65625 -2.58008 
-1.31348 0.664063 -2.60938 
-1.31641 0.671875 -2.63867 
-1.31836 0.679688 -2.66992 
-1.32129 0.687012 -2.69922 
-1.32324 0.695313 -2.73047 
-1.3252 0.703125 -2.76172 
-1.32715 0.710938 -2.79297 
-1.33008 0.719727 -2.82617 
-1.33203 0.728027 -2.85938 
-1.33301 0.736328 -2.89258 
-1.33398 0.744629 -2.92383 
-1.33398 0.752441 -2.95508 
-1.33398 0.759766 -2.98633 
-1.33301 0.768066 -3.01758 
-1.33398 0.776855 -3.05273 
-1.33789 0.787109 -3.09375 
-1.34375 0.799316 -3.14063 
-1.35059 0.812988 -3.19336 
-1.35938 0.827148 -3.25 
-1.36621 0.84082 -3.30469 
-1.37012 0.853027 -3.35156 
-1.37109 0.86377 -3.39258 
-1.36816 0.87207 -3.42578 
-1.36133 0.878418 -3.45117 
-1.35156 0.882324 -3.4668 
-1.33984 0.885254 -3.47852 
-1.32617 0.887695 -3.48633 
-1.31348 0.890137 -3.49609 
-1.30176 0.893066 -3.50781 
-1.29004 0.896484 -3.52344 
-1.2793 0.900391 -3.53711 
-1.26758 0.904297 -3.55273 
-1.25586 0.907715 -3.56641 
-1.24316 0.910645 -3.57813 
-1.22852 0.912598 -3.58594 
-1.21387 0.914551 -3.5918 
-1.19727 0.915039 -3.59375 
-1.17969 0.914551 -3.59375 
-1.16211 0.913574 -3.58984 
-1.14258 0.911621 -3.58203 
-1.12305 0.909668 -3.57227 
-1.10254 0.907227 -3.56445 
-1.08301 0.904785 -3.55469 
-1.06348 0.902344 -3.54492 
-1.04492 0.900879 -3.53906 
-1.02637 0.899414 -3.5332 
-1.00781 0.897461 -3.52539 
-0.989258 0.895508 -3.51953 
-0.971191 0.894531 -3.51367 
-0.954102 0.894043 -3.51367 
-0.938965 0.89502 -3.51758 
-0.924316 0.896973 -3.52539 
-0.909668 0.899414 -3.5332 
-0.895508 0.901855 -3.54297 
-0.881348 0.904297 -3.55273 
-0.866699 0.906738 -3.5625 
-0.851563 0.908691 -3.56836 
-0.836426 0.910645 -3.57617 
-0.821289 0.912109 -3.58398 
-0.805664 0.914063 -3.5918 
-0.789551 0.915039 -3.5957 
-0.772949 0.915527 -3.59766 
-0.755859 0.915527 -3.5957 
-0.738281 0.915039 -3.59375 
-0.721191 0.915039 -3.59375 
-0.705078 0.915527 -3.59766 
-0.688965 0.916992 -3.60352 
-0.67334 0.918945 -3.60938 
-0.657715 0.920898 -3.61719 
-0.641113 0.921875 -3.62305 
-0.624512 0.922852 -3.625 
-0.607422 0.922852 -3.625 
-0.590332 0.922363 -3.625 
-0.572754 0.921875 -3.62305 
-0.555176 0.921387 -3.62109 
-0.537598 0.920898 -3.61719 
-0.52002 0.919434 -3.61133 
-0.501953 0.917969 -3.60547 
-0.484131 0.916504 -3.59961 
-0.466309 0.915039 -3.59375 
-0.44873 0.913574 -3.58984 
-0.431152 0.912109 -3.58398 
-0.413574 0.911133 -3.58008 
-0.39624 0.910156 -3.57617 
-0.37915 0.909668 -3.57227 
-0.361816 0.908691 -3.57031 
-0.344727 0.907715 -3.56641 
-0.327637 0.907227 -3.56445 
-0.310791 0.907227 -3.56445 
-0.294189 0.908691 -3.56836 
-0.277832 0.910645 -3.57617 
-0.261963 0.914063 -3.58984 
-0.246338 0.918457 -3.60938 
-0.230957 0.925293 -3.63477 
-0.215698 0.933594 -3.66797 
-0.200439 0.943848 -3.70703 
-0.184937 0.954102 -3.74805 
-0.168945 0.964355 -3.78906 
-0.152466 0.973633 -3.82422 
-0.135376 0.980957 -3.85352 
-0.117981 0.987793 -3.88086 
-0.100098 0.992676 -3.89844 
-0.0819702 0.996094 -3.91406 
-0.0635376 0.998047 -3.91992 
-0.0450439 0.998535 -3.92383 
-0.026474 0.998535 -3.92188 
-0.00789642 0.994629 -3.9082 
0.0105743 0.993164 -3.90234 
0.0289154 0.989258 -3.88672 
0.0474854 0.993164 -3.90234 
0.0658569 0.992188 -3.89648 
0.0841675 0.990723 -3.89063 
0.102417 0.98877 -3.88477 
0.120605 0.987305 -3.87891 
0.138672 0.98584 -3.87305 
0.156616 0.98291 -3.86133 
0.174438 0.980469 -3.85156 
0.192017 0.977539 -3.83984 
0.210327 0.977539 -3.8418 
0.229126 0.980957 -3.85352 
0.247925 0.98291 -3.86133 
0.266846 0.985352 -3.87109 
0.285889 0.987793 -3.88086 
0.305176 0.991211 -3.89258 
0.325195 0.995605 -3.91211 
0.34375 0.996094 -3.91406 
0.362549 0.996582 -3.91602 
0.380127 0.994629 -3.9082 
0.398438 0.994141 -3.90625 
0.416504 0.992676 -3.90039 
0.434814 0.992188 -3.89844 
0.454102 0.994629 -3.9082 
0.472412 0.993652 -3.9043 
0.490479 0.993164 -3.90234 
0.509277 0.994141 -3.90625 
0.527344 0.993164 -3.90039 
0.545898 0.993164 -3.90234 
0.562988 0.991211 -3.89453 
0.580566 0.989258 -3.88672 
0.599121 0.989258 -3.88672 
0.617676 0.990234 -3.89063 
0.639648 0.995605 -3.91211 
0.659668 0.997559 -3.91992 
0.679199 0.999023 -3.92578 
0.69873 1 -3.92969 
0.715332 0.997559 -3.91992 
0.734375 0.999023 -3.92383 
0.753906 1 -3.92969 
0.773438 1.00098 -3.93164 
0.79248 1.00195 -3.93555 
0.811523 1.00195 -3.9375 
0.829102 1.00098 -3.93164 
0.848633 1.00195 -3.9375 
0.869141 1.00391 -3.94531 
0.888184 1.00488 -3.94727 
0.942383 1.00195 -3.9375 
0.978027 1.00098 -3.93164 
0.998535 1.00293 -3.93945 
1.01953 1.00586 -3.95117 
1.03223 0.999512 -3.92578 
1.0459 0.994629 -3.9082 
1.05762 0.98877 -3.88477 
1.06934 0.982422 -3.85938 
1.07813 0.974609 -3.82813 
1.08789 0.966309 -3.79688 
1.10352 0.964355 -3.78711 
1.11035 0.95459 -3.75 
1.11621 0.944824 -3.71289 
1.12305 0.936523 -3.67773 
1.13184 0.928711 -3.64844 
1.1416 0.922852 -3.62695 
1.15332 0.918457 -3.60938 
1.16602 0.915039 -3.5957 
1.17773 0.911133 -3.57813 
1.1875 0.905273 -3.55664 
1.19336 0.896973 -3.52539 
1.19629 0.887207 -3.48633 
1.19824 0.876465 -3.44336 
1.19922 0.865723 -3.40039 
1.20215 0.856445 -3.36328 
1.20703 0.848633 -3.33398 
1.21289 0.841309 -3.30469 
1.21875 0.834473 -3.2793 
1.22461 0.828125 -3.25391 
1.23047 0.821777 -3.22852 
1.23438 0.814453 -3.19922 
1.23828 0.807129 -3.16992 
1.24023 0.79834 -3.13672 
1.24023 0.789551 -3.10156 
1.24023 0.779785 -3.06445 
1.23926 0.77002 -3.02539 
1.2373 0.760254 -2.98828 
1.23535 0.750488 -2.94922 
1.23145 0.740234 -2.9082 
1.22949 0.730469 -2.87109 
1.22949 0.722656 -2.83984 
1.23047 0.714844 -2.80859 
1.23145 0.708496 -2.7832 
1.23535 0.702637 -2.76172 
1.23926 0.697754 -2.74219 
1.24609 0.694336 -2.72852 
1.25488 0.692383 -2.71875 
1.2666 0.691406 -2.7168 
1.28125 0.692383 -2.71875 
1.29883 0.695313 -2.73047 
1.32129 0.699707 -2.75 
1.34668 0.706543 -2.77539 
1.38086 0.717773 -2.81836 
1.4375 0.739746 -2.90625 
1.47852 0.753418 -2.96094 
1.54297 0.779297 -3.06055 
1.60645 0.803711 -3.1582 
1.73047 0.857422 -3.36914 
1.80078 0.884277 -3.47461 
1.82324 0.887207 -3.48633 
1.82422 0.879395 -3.45508 
1.79199 0.856445 -3.36523 
1.76855 0.837891 -3.29102 
1.75488 0.824219 -3.23828 
1.75293 0.816406 -3.20703 
1.72754 0.797363 -3.13281 
1.69922 0.777832 -3.05469 
1.66309 0.754395 -2.96484 
1.63086 0.733887 -2.88281 
1.58496 0.707031 -2.77734 
1.51758 0.671387 -2.63867 
1.40918 0.618652 -2.42969 
1.35156 0.588379 -2.31055 
1.33398 0.576172 -2.26367 
1.32129 0.566406 -2.22461 
1.31152 0.557617 -2.19141 
1.30566 0.550781 -2.16406 
1.30176 0.544922 -2.14063 
1.29883 0.539063 -2.11914 
1.29785 0.534668 -2.10156 
1.29785 0.530762 -2.08594 
1.29785 0.526855 -2.06836 
1.29883 0.522949 -2.05469 
1.2998 0.519531 -2.04102 
1.30078 0.516113 -2.02734 
1.30371 0.513184 -2.01758 
1.30664 0.51123 -2.00781 
1.31348 0.509766 -2.00195 
1.32031 0.509277 -2 
1.33398 0.510742 -2.00586 
1.3418 0.510254 -2.00391 
1.34668 0.508301 -1.99707 
1.33691 0.500977 -1.96777 
1.33594 0.49707 -1.95313 
1.33301 0.49292 -1.93652 
1.33008 0.488281 -1.91797 
1.3252 0.483398 -1.89941 
1.32031 0.478271 -1.87891 
1.31543 0.473389 -1.85938 
1.31055 0.468506 -1.84082 
1.30664 0.463867 -1.82227 
1.30273 0.459473 -1.80566 
1.2998 0.455566 -1.78906 
1.29688 0.451416 -1.77344 
1.29395 0.44751 -1.75879 
1.29297 0.444336 -1.74512 
1.29102 0.440918 -1.73242 
1.29102 0.438232 -1.72168 
1.29199 0.435547 -1.71094 
1.29395 0.433838 -1.7041 
1.29785 0.432129 -1.69824 
1.30176 0.430908 -1.69336 
1.30664 0.429932 -1.68945 
1.31152 0.428955 -1.68555 
1.31543 0.427734 -1.67969 
1.31934 0.426025 -1.67383 
1.32031 0.424072 -1.66602 
1.32227 0.422119 -1.6582 
1.32227 0.419434 -1.64844 
1.32031 0.416748 -1.63672 
1.31934 0.413818 -1.62598 
1.31836 0.411133 -1.61523 
1.31641 0.407959 -1.60254 
1.31348 0.405029 -1.59082 
1.31152 0.4021 -1.58008 
1.30957 0.398926 -1.56738 
1.30762 0.39624 -1.55664 
1.30469 0.393066 -1.54492 
1.30078 0.389893 -1.53125 
1.2959 0.38623 -1.51758 
1.29004 0.382324 -1.50195 
1.28613 0.37915 -1.48926 
1.28223 0.375732 -1.47656 
1.28027 0.373291 -1.46582 
1.28027 0.371094 -1.45801 
1.28125 0.369629 -1.45215 
1.28516 0.368652 -1.44824 
1.28809 0.367676 -1.44434 
1.29199 0.366943 -1.44141 
1.2959 0.365723 -1.4375 
1.29785 0.364502 -1.43164 
1.2998 0.363281 -1.42676 
1.30176 0.361816 -1.4209 
1.30176 0.359863 -1.41406 
1.30273 0.358398 -1.4082 
1.30371 0.356934 -1.40234 
1.30566 0.355469 -1.39648 
1.30859 0.354492 -1.39258 
1.3125 0.35376 -1.38965 
1.31543 0.352783 -1.38574 
1.31836 0.352051 -1.38281 
1.32227 0.351318 -1.37988 
1.32617 0.350586 -1.37695 
1.33008 0.349609 -1.37402 
1.33301 0.348877 -1.37109 
1.33691 0.348145 -1.36816 
1.33887 0.347168 -1.36426 
1.34277 0.346436 -1.36035 
1.34961 0.346436 -1.36035 
1.35449 0.346191 -1.35938 
1.35742 0.345215 -1.35547 
1.35938 0.343994 -1.35156 
-1.23535 0.325439 -1.30273 
-1.23242 0.326416 -1.30664 
-1.23145 0.327637 -1.31152 
-1.22949 0.328857 -1.31641 
-1.22852 0.330078 -1.32129 
-1.22852 0.332031 -1.3291 
-1.22754 0.333496 -1.33496 
-1.22754 0.335205 -1.3418 
-1.22852 0.337158 -1.34961 
-1.22852 0.338867 -1.35645 
-1.22852 0.34082 -1.36426 
-1.22949 0.342773 -1.37207 
-1.22949 0.344482 -1.37891 
-1.22949 0.346436 -1.38672 
-1.22949 0.348145 -1.39355 
-1.22949 0.350342 -1.40234 
-1.23047 0.352295 -1.41016 
-1.23047 0.354248 -1.41797 
-1.23047 0.356201 -1.42578 
-1.23145 0.358398 -1.43555 
-1.23242 0.36084 -1.44434 
-1.2334 0.363037 -1.45313 
-1.23438 0.365234 -1.46191 
-1.23438 0.367432 -1.47168 
-1.23633 0.370117 -1.48145 
-1.2373 0.372559 -1.49121 
-1.23926 0.375 -1.50098 
-1.24121 0.37793 -1.5127 
-1.24219 0.380615 -1.52344 
-1.24512 0.383545 -1.53516 
-1.24805 0.386475 -1.54785 
-1.25 0.389648 -1.55957 
-1.25098 0.392334 -1.57031 
-1.25293 0.39502 -1.58203 
-1.25293 0.397705 -1.5918 
-1.25391 0.400146 -1.60156 
-1.25391 0.402588 -1.61133 
-1.25293 0.404785 -1.62109 
-1.25293 0.407471 -1.63086 
-1.25391 0.410156 -1.6416 
-1.25391 0.412598 -1.65234 
-1.25391 0.415527 -1.66309 
-1.25488 0.418213 -1.67383 
-1.25488 0.420898 -1.68555 
-1.25586 0.424072 -1.69727 
-1.25684 0.427002 -1.70898 
-1.25684 0.429932 -1.72168 
-1.25879 0.43335 -1.73438 
-1.25977 0.436523 -1.74707 
-1.2627 0.440186 -1.7627 
-1.26465 0.444092 -1.77734 
-1.26758 0.447998 -1.79395 
-1.26953 0.451904 -1.80859 
-1.27051 0.455078 -1.82129 
-1.27051 0.458252 -1.83496 
-1.27051 0.461426 -1.84668 
-1.27051 0.4646 -1.85938 
-1.27051 0.467773 -1.87305 
-1.27246 0.471924 -1.88867 
-1.27246 0.475098 -1.90234 
-1.27246 0.478516 -1.91602 
-1.27246 0.482178 -1.92969 
-1.27246 0.485352 -1.94336 
-1.27246 0.489014 -1.95703 
-1.27148 0.492188 -1.96973 
-1.27148 0.495605 -1.98438 
-1.27148 0.499512 -1.99902 
-1.27148 0.50293 -2.01367 
-1.27148 0.506836 -2.0293 
-1.27051 0.510742 -2.04492 
-1.26953 0.51416 -2.05859 
-1.26953 0.518066 -2.07227 
-1.26953 0.521973 -2.08984 
-1.27051 0.526367 -2.10742 
-1.27344 0.531738 -2.12891 
-1.27637 0.537109 -2.15039 
-1.2793 0.542969 -2.17383 
-1.2832 0.548828 -2.19727 
-1.28711 0.555176 -2.22266 
-1.29004 0.560547 -2.24414 
-1.29199 0.566406 -2.26758 
-1.29395 0.572266 -2.29102 
-1.29688 0.578125 -2.31445 
-1.29883 0.583984 -2.33789 
-1.30078 0.589844 -2.36133 
-1.30176 0.595215 -2.38281 
-1.30273 0.601074 -2.40625 
-1.30273 0.606445 -2.42773 
-1.30371 0.612305 -2.45117 
-1.30371 0.617676 -2.47266 
-1.30469 0.623535 -2.49609 
-1.30566 0.629883 -2.52148 
-1.30762 0.636719 -2.54883 
-1.30957 0.643555 -2.57617 
-1.3125 0.650879 -2.60547 
-1.31445 0.658691 -2.63672 
-1.31738 0.666504 -2.66797 
-1.32031 0.673828 -2.69727 
-1.32227 0.681641 -2.72852 
-1.32422 0.689453 -2.76172 
-1.32715 0.697754 -2.79297 
-1.33008 0.706055 -2.82617 
-1.33203 0.714844 -2.86133 
-1.33398 0.723145 -2.89453 
-1.33496 0.731445 -2.92773 
-1.33594 0.739258 -2.95898 
-1.33594 0.74707 -2.99023 
-1.33594 0.755371 -3.02344 
-1.33691 0.763672 -3.05859 
-1.33984 0.773926 -3.09766 
-1.34473 0.785645 -3.14453 
-1.35254 0.79834 -3.19727 
-1.35938 0.812012 -3.25 
-1.36621 0.825195 -3.30469 
-1.37012 0.836914 -3.35156 
-1.37109 0.847656 -3.39258 
-1.36719 0.855469 -3.42383 
-1.36035 0.861328 -3.44727 
-1.35059 0.865234 -3.46289 
-1.33789 0.867676 -3.47266 
-1.3252 0.870117 -3.48242 
-1.3125 0.872559 -3.49219 
-1.2998 0.875488 -3.50391 
-1.28906 0.878906 -3.51953 
-1.27734 0.882813 -3.5332 
-1.26563 0.88623 -3.54688 
-1.25293 0.88916 -3.55859 
-1.23926 0.891113 -3.56836 
-1.22461 0.892578 -3.57422 
-1.20898 0.894043 -3.57813 
-1.19238 0.894531 -3.58008 
-1.17578 0.894043 -3.57813 
-1.1582 0.893555 -3.57617 
-1.13965 0.89209 -3.57227 
-1.12012 0.890625 -3.56641 
-1.10156 0.88916 -3.55859 
-1.08203 0.887207 -3.55078 
-1.06348 0.885254 -3.54297 
-1.04395 0.883301 -3.53711 
-1.02539 0.881348 -3.5293 
-1.00586 0.879395 -3.51953 
-0.986816 0.876953 -3.50977 
-0.968262 0.875488 -3.50391 
-0.951172 0.875 -3.50195 
-0.935547 0.875488 -3.50391 
-0.920898 0.877441 -3.51367 
-0.907227 0.879883 -3.52344 
-0.893066 0.882324 -3.5332 
-0.878418 0.884766 -3.54102 
-0.863281 0.886719 -3.54883 
-0.848145 0.888184 -3.55664 
-0.833496 0.890137 -3.56445 
-0.817871 0.89209 -3.57031 
-0.803223 0.894043 -3.57813 
-0.787598 0.895508 -3.58594 
-0.771484 0.896484 -3.58984 
-0.754883 0.896973 -3.5918 
-0.737793 0.897461 -3.5918 
-0.721191 0.897461 -3.59375 
-0.705078 0.898438 -3.59766 
-0.688965 0.899902 -3.60352 
-0.67334 0.901855 -3.61133 
-0.657715 0.903809 -3.61719 
-0.641602 0.905273 -3.62305 
-0.624512 0.905762 -3.625 
-0.607422 0.905762 -3.62695 
-0.590332 0.905762 -3.625 
-0.572754 0.905273 -3.62305 
-0.555176 0.904785 -3.62109 
-0.537598 0.903809 -3.61719 
-0.52002 0.902832 -3.61328 
-0.501953 0.900879 -3.60742 
-0.484375 0.899902 -3.60156 
-0.466797 0.898438 -3.59766 
-0.449219 0.897461 -3.59375 
-0.431641 0.896484 -3.58789 
-0.414063 0.89502 -3.58398 
-0.396484 0.894043 -3.57813 
-0.37915 0.892578 -3.57227 
-0.361572 0.891113 -3.56836 
-0.344482 0.890137 -3.56445 
-0.327393 0.889648 -3.5625 
-0.310547 0.889648 -3.5625 
-0.293945 0.890625 -3.56641 
-0.277832 0.893066 -3.57422 
-0.261963 0.896484 -3.58984 
-0.246216 0.901367 -3.60742 
-0.230835 0.907715 -3.63477 
-0.215576 0.916016 -3.66797 
-0.200439 0.92627 -3.70703 
-0.184937 0.936523 -3.75 
-0.168945 0.946777 -3.78906 
-0.152588 0.956055 -3.82617 
-0.135498 0.963379 -3.85742 
-0.118042 0.970215 -3.88281 
-0.10022 0.975098 -3.90234 
-0.0820313 0.979004 -3.91797 
-0.0636597 0.980957 -3.92773 
-0.0451355 0.981934 -3.92969 
-0.026535 0.981445 -3.92969 
-0.0079422 0.981934 -3.92969 
0.010643 0.981445 -3.92773 
0.0292969 0.983887 -3.9375 
0.0476074 0.977539 -3.91211 
0.065979 0.975586 -3.90625 
0.0840454 0.970703 -3.88477 
0.102234 0.969238 -3.87891 
0.120911 0.971191 -3.88867 
0.139038 0.969238 -3.88086 
0.156982 0.966797 -3.87109 
0.174805 0.964355 -3.85938 
0.192627 0.961914 -3.85156 
0.210938 0.962402 -3.85156 
0.229492 0.963867 -3.85938 
0.248169 0.965332 -3.86523 
0.26709 0.968262 -3.875 
0.286133 0.970703 -3.88672 
0.304688 0.971191 -3.88867 
0.324951 0.976563 -3.9082 
0.344238 0.978516 -3.91797 
0.362793 0.979004 -3.91992 
0.37915 0.973145 -3.89453 
0.396973 0.97168 -3.89063 
0.433594 0.97168 -3.88867 
0.455811 0.979492 -3.92188 
0.474365 0.979492 -3.91992 
0.493164 0.97998 -3.92383 
0.51123 0.979492 -3.92188 
0.529785 0.979492 -3.91992 
0.54834 0.979004 -3.91992 
0.566406 0.978516 -3.91797 
0.583008 0.975098 -3.90234 
0.601074 0.974121 -3.90039 
0.62207 0.978516 -3.91602 
0.641113 0.979492 -3.91992 
0.660645 0.980469 -3.92578 
0.680176 0.981934 -3.92969 
0.699219 0.98291 -3.93359 
0.717773 0.98291 -3.93359 
0.734863 0.980469 -3.92578 
0.754395 0.981934 -3.92969 
0.772949 0.981934 -3.93164 
0.788086 0.978027 -3.91406 
0.806641 0.978027 -3.91406 
0.824707 0.977539 -3.91211 
0.844238 0.978027 -3.91602 
0.885254 0.982422 -3.93359 
0.955566 0.978516 -3.91797 
0.978516 0.98291 -3.93359 
0.996094 0.981934 -3.92969 
1.01465 0.981934 -3.92969 
1.03418 0.982422 -3.93359 
1.04395 0.974609 -3.90234 
1.05469 0.967773 -3.875 
1.06641 0.961426 -3.84766 
1.07617 0.954102 -3.81836 
1.08594 0.947266 -3.79102 
1.10254 0.945313 -3.78516 
1.10938 0.936035 -3.74805 
1.11621 0.926758 -3.71094 
1.12207 0.917969 -3.67383 
1.13086 0.910645 -3.64453 
1.14063 0.904785 -3.62109 
1.15234 0.900391 -3.60547 
1.16504 0.897461 -3.5918 
1.17773 0.894043 -3.57813 
1.1875 0.888672 -3.55859 
1.19434 0.881348 -3.52734 
1.19824 0.87207 -3.49023 
1.2002 0.861328 -3.44922 
1.20215 0.851563 -3.4082 
1.20508 0.842285 -3.37305 
1.20996 0.834473 -3.3418 
1.21484 0.827148 -3.3125 
1.2207 0.820801 -3.28516 
1.22656 0.813965 -3.25781 
1.23145 0.807129 -3.23047 
1.23535 0.799805 -3.20313 
1.23828 0.79248 -3.17188 
1.24121 0.78418 -3.13867 
1.24219 0.775391 -3.10352 
1.24219 0.766602 -3.06836 
1.24121 0.757324 -3.03125 
1.24023 0.748047 -2.99414 
1.23828 0.73877 -2.95703 
1.23633 0.729004 -2.91797 
1.23438 0.719727 -2.88086 
1.2334 0.711426 -2.84766 
1.23438 0.704102 -2.81836 
1.23535 0.697266 -2.79102 
1.23828 0.691406 -2.76758 
1.24219 0.686035 -2.74609 
1.24805 0.682617 -2.73242 
1.25586 0.679688 -2.7207 
1.26563 0.678223 -2.71484 
1.2793 0.678223 -2.71484 
1.29492 0.679688 -2.7207 
1.31543 0.683594 -2.73633 
1.3418 0.690918 -2.76563 
1.36426 0.695801 -2.78516 
1.42285 0.71875 -2.87695 
1.45898 0.72998 -2.92188 
1.50488 0.745605 -2.98438 
1.56152 0.766602 -3.06836 
1.69727 0.825195 -3.30469 
1.73438 0.835449 -3.3457 
1.75879 0.839844 -3.36133 
1.76953 0.837402 -3.35156 
1.74707 0.819824 -3.28125 
1.71973 0.799316 -3.20117 
1.71289 0.789063 -3.16016 
1.7207 0.786133 -3.14648 
1.69727 0.769043 -3.07813 
1.66309 0.74707 -2.99023 
1.62598 0.724121 -2.89844 
1.59375 0.703613 -2.81641 
1.5498 0.678711 -2.7168 
1.5 0.651367 -2.60742 
1.42676 0.614258 -2.45898 
1.37207 0.586426 -2.34766 
1.34082 0.568359 -2.27539 
1.32422 0.557129 -2.23047 
1.31348 0.547852 -2.19336 
1.30664 0.541016 -2.16602 
1.30176 0.534668 -2.14063 
1.29883 0.529297 -2.11914 
1.29785 0.524902 -2.09961 
1.29785 0.520508 -2.08398 
1.29785 0.51709 -2.06836 
1.29785 0.513184 -2.05469 
1.29883 0.509766 -2.03906 
1.2998 0.505859 -2.02539 
1.30078 0.50293 -2.01367 
1.30371 0.500488 -2.00195 
1.30762 0.498535 -1.99512 
1.31445 0.497314 -1.99023 
1.31836 0.495361 -1.9834 
1.32031 0.492432 -1.97168 
1.32422 0.490479 -1.96289 
1.32129 0.486084 -1.94629 
1.32227 0.48291 -1.93262 
1.32129 0.479492 -1.91895 
1.32031 0.475586 -1.9043 
1.31738 0.47168 -1.8877 
1.31543 0.467529 -1.87207 
1.3125 0.463379 -1.85449 
1.30957 0.459229 -1.83887 
1.30664 0.455322 -1.82227 
1.30371 0.451416 -1.80664 
1.30078 0.447266 -1.79004 
1.29785 0.443604 -1.77539 
1.2959 0.439941 -1.76172 
1.29395 0.436523 -1.74707 
1.29199 0.433105 -1.7334 
1.29199 0.430176 -1.72266 
1.29199 0.427734 -1.71191 
1.29395 0.425537 -1.70313 
1.29688 0.424072 -1.69727 
1.30078 0.422363 -1.69141 
1.30469 0.421143 -1.68652 
1.30859 0.419922 -1.68066 
1.3125 0.418701 -1.67578 
1.31543 0.416992 -1.66895 
1.31738 0.415283 -1.66211 
1.31836 0.412842 -1.65332 
1.31836 0.410645 -1.64355 
1.31836 0.408203 -1.63379 
1.31836 0.405762 -1.62402 
1.31641 0.402832 -1.61328 
1.31641 0.400391 -1.60254 
1.31445 0.397705 -1.5918 
1.31348 0.39502 -1.58203 
1.31152 0.392334 -1.57031 
1.31055 0.389893 -1.56055 
1.30859 0.387207 -1.5498 
1.30566 0.383789 -1.53613 
1.30176 0.380859 -1.52441 
1.29785 0.377686 -1.51172 
1.29395 0.374268 -1.49805 
1.29199 0.371582 -1.4873 
1.29004 0.369141 -1.47754 
1.29004 0.366943 -1.46973 
1.29102 0.365479 -1.46289 
1.29395 0.364258 -1.45801 
1.2959 0.363037 -1.45313 
1.29883 0.361816 -1.44824 
1.2998 0.360352 -1.44238 
1.30176 0.358643 -1.43652 
1.30176 0.356934 -1.42871 
1.30176 0.35498 -1.4209 
1.30078 0.353027 -1.41309 
1.30078 0.351318 -1.40625 
1.30176 0.349609 -1.40039 
1.30371 0.348389 -1.39453 
1.30664 0.347412 -1.39063 
1.31055 0.34668 -1.3877 
1.31348 0.345703 -1.38379 
1.31641 0.344971 -1.38086 
1.31934 0.343994 -1.37695 
1.32324 0.343262 -1.37402 
1.32617 0.342285 -1.37012 
1.3291 0.341553 -1.36719 
1.33203 0.340332 -1.36328 
1.33398 0.339355 -1.3584 
1.33691 0.338379 -1.35449 
1.34277 0.338379 -1.35449 
1.3418 0.336426 -1.34668 
1.35059 0.337158 -1.34961 
1.35156 0.335693 -1.34375 
-1.2373 0.318359 -1.29883 
-1.23438 0.319092 -1.30176 
-1.23145 0.320068 -1.30566 
-1.23047 0.321289 -1.31055 
-1.22852 0.32251 -1.31543 
-1.22852 0.323975 -1.32129 
-1.22852 0.325684 -1.3291 
-1.22852 0.327393 -1.33594 
-1.22852 0.329102 -1.34277 
-1.22852 0.330811 -1.34961 
-1.22852 0.33252 -1.35645 
-1.22949 0.334473 -1.36523 
-1.22949 0.336182 -1.37207 
-1.23047 0.338135 -1.37988 
-1.22949 0.339844 -1.38672 
-1.23047 0.341797 -1.39453 
-1.22949 0.343506 -1.40234 
-1.23047 0.345459 -1.41016 
-1.23047 0.347412 -1.41797 
-1.23145 0.349854 -1.42676 
-1.23242 0.352051 -1.43652 
-1.23242 0.354004 -1.44434 
-1.2334 0.356201 -1.45313 
-1.23438 0.358398 -1.46191 
-1.23438 0.360596 -1.47168 
-1.23633 0.363037 -1.48145 
-1.2373 0.365479 -1.49121 
-1.23926 0.36792 -1.50098 
-1.24023 0.370361 -1.51172 
-1.24219 0.373047 -1.52246 
-1.24414 0.375977 -1.53418 
-1.24609 0.378662 -1.5459 
-1.24805 0.381836 -1.55762 
-1.25 0.384521 -1.56836 
-1.25098 0.387207 -1.58008 
-1.25195 0.389648 -1.58984 
-1.25195 0.39209 -1.59961 
-1.25195 0.394531 -1.60938 
-1.25195 0.396973 -1.62012 
-1.25293 0.399658 -1.63086 
-1.25293 0.4021 -1.64063 
-1.25391 0.404785 -1.65234 
-1.25391 0.407471 -1.66309 
-1.25488 0.410156 -1.67383 
-1.25488 0.413086 -1.68555 
-1.25586 0.416016 -1.69727 
-1.25684 0.418945 -1.70898 
-1.25684 0.421875 -1.72168 
-1.25879 0.425049 -1.73438 
-1.25977 0.428223 -1.74707 
-1.2627 0.431885 -1.7627 
-1.26465 0.435547 -1.77734 
-1.2666 0.438965 -1.79199 
-1.26758 0.442627 -1.80566 
-1.26855 0.445801 -1.81836 
-1.26758 0.44873 -1.83105 
-1.26758 0.45166 -1.84277 
-1.26758 0.454834 -1.85547 
-1.26758 0.458008 -1.86914 
-1.26953 0.461914 -1.88477 
-1.27051 0.465332 -1.89941 
-1.27148 0.468994 -1.91406 
-1.27148 0.472412 -1.92773 
-1.27148 0.476074 -1.94238 
-1.27246 0.479736 -1.95703 
-1.27246 0.483154 -1.97168 
-1.27246 0.486816 -1.98633 
-1.27246 0.490479 -2 
-1.27246 0.494141 -2.01563 
-1.27246 0.497803 -2.03125 
-1.27148 0.500977 -2.04492 
-1.27148 0.504883 -2.06055 
-1.27051 0.508789 -2.07422 
-1.27051 0.512695 -2.0918 
-1.27246 0.51709 -2.10938 
-1.27441 0.522461 -2.13086 
-1.27832 0.527832 -2.1543 
-1.28125 0.533203 -2.17578 
-1.28516 0.539551 -2.20117 
-1.28809 0.544922 -2.22461 
-1.29102 0.550781 -2.24609 
-1.29297 0.556152 -2.26953 
-1.29395 0.561523 -2.29102 
-1.29688 0.566895 -2.31445 
-1.29785 0.572754 -2.33594 
-1.2998 0.578125 -2.35938 
-1.30078 0.583984 -2.38281 
-1.30176 0.589355 -2.4043 
-1.30176 0.594727 -2.42578 
-1.30273 0.600098 -2.44922 
-1.30273 0.605957 -2.47266 
-1.30371 0.611816 -2.49609 
-1.30566 0.618164 -2.52148 
-1.30762 0.624512 -2.54883 
-1.30957 0.631348 -2.57617 
-1.3125 0.63916 -2.60742 
-1.31543 0.646484 -2.63867 
-1.31836 0.653809 -2.66797 
-1.32129 0.661621 -2.69922 
-1.32324 0.669434 -2.73242 
-1.32617 0.677246 -2.76367 
-1.32813 0.685059 -2.79688 
-1.33105 0.693359 -2.83008 
-1.33398 0.702148 -2.86523 
-1.33594 0.710449 -2.89844 
-1.33789 0.71875 -2.93164 
-1.33789 0.726563 -2.96484 
-1.33789 0.734375 -2.99609 
-1.33789 0.742188 -3.02734 
-1.33887 0.750488 -3.0625 
-1.34082 0.760254 -3.10156 
-1.3457 0.770996 -3.14453 
-1.35156 0.783203 -3.19531 
-1.3584 0.795898 -3.24805 
-1.36426 0.808105 -3.29883 
-1.36719 0.819824 -3.3457 
-1.36816 0.82959 -3.38477 
-1.36523 0.837891 -3.41992 
-1.35938 0.84375 -3.44336 
-1.34961 0.848145 -3.46094 
-1.33691 0.850586 -3.4707 
-1.32422 0.853027 -3.48242 
-1.31152 0.855957 -3.49219 
-1.2998 0.858887 -3.50391 
-1.28906 0.862305 -3.51953 
-1.27637 0.865723 -3.53125 
-1.26367 0.868164 -3.54297 
-1.25 0.870117 -3.55078 
-1.23535 0.871582 -3.55664 
-1.21973 0.872559 -3.56055 
-1.2041 0.873535 -3.56445 
-1.1875 0.873535 -3.56445 
-1.16992 0.873535 -3.56445 
-1.15332 0.873047 -3.5625 
-1.13574 0.872559 -3.56055 
-1.11816 0.87207 -3.55859 
-1.09961 0.871094 -3.55469 
-1.08105 0.869629 -3.54883 
-1.0625 0.868164 -3.54297 
-1.04395 0.866699 -3.53516 
-1.02539 0.864746 -3.52734 
-1.00586 0.862305 -3.51758 
-0.986328 0.859863 -3.50781 
-0.967773 0.85791 -3.5 
-0.950195 0.857422 -3.49805 
-0.93457 0.85791 -3.5 
-0.919922 0.859863 -3.50781 
-0.905273 0.861816 -3.51758 
-0.891113 0.864258 -3.52539 
-0.876465 0.866211 -3.5332 
-0.861328 0.867676 -3.53906 
-0.845703 0.868652 -3.54492 
-0.830566 0.870605 -3.55273 
-0.81543 0.87207 -3.55859 
-0.800293 0.874512 -3.56836 
-0.785156 0.876465 -3.57617 
-0.769531 0.87793 -3.58203 
-0.753906 0.878906 -3.58789 
-0.737305 0.879883 -3.58984 
-0.721191 0.880371 -3.59375 
-0.705078 0.881348 -3.59766 
-0.688965 0.882813 -3.60352 
-0.67334 0.884766 -3.60938 
-0.657227 0.88623 -3.61523 
-0.641113 0.887207 -3.62109 
-0.624023 0.887695 -3.62305 
-0.606934 0.887695 -3.62305 
-0.589844 0.887695 -3.62109 
-0.572266 0.887207 -3.62109 
-0.555176 0.886719 -3.61719 
-0.537598 0.88623 -3.61523 
-0.52002 0.885254 -3.61133 
-0.502441 0.884277 -3.60938 
-0.484863 0.883301 -3.60547 
-0.467285 0.882324 -3.60156 
-0.449707 0.881348 -3.59766 
-0.432129 0.880371 -3.5918 
-0.414307 0.878418 -3.58594 
-0.396729 0.876953 -3.57813 
-0.378906 0.875488 -3.57227 
-0.361328 0.873535 -3.56445 
-0.343994 0.872559 -3.56055 
-0.32666 0.871582 -3.55664 
-0.310059 0.871582 -3.55664 
-0.293457 0.872559 -3.56055 
-0.277344 0.875 -3.57031 
-0.261475 0.878418 -3.58398 
-0.245972 0.883301 -3.60352 
-0.230591 0.889648 -3.63086 
-0.215332 0.897949 -3.66406 
-0.200195 0.907227 -3.70313 
-0.184814 0.917969 -3.74609 
-0.168823 0.928223 -3.78711 
-0.152466 0.937012 -3.82422 
-0.135498 0.944824 -3.85547 
-0.118042 0.95166 -3.88281 
-0.10022 0.956543 -3.90234 
-0.0820313 0.960449 -3.91797 
-0.0636597 0.962891 -3.92773 
-0.0452576 0.966309 -3.94336 
-0.0266266 0.966309 -3.94336 
-0.00796509 0.966309 -3.94336 
0.0106888 0.966797 -3.94531 
0.0293121 0.965332 -3.93945 
0.047821 0.962891 -3.92969 
0.0657349 0.953613 -3.89063 
0.0841675 0.953613 -3.89063 
0.102478 0.953125 -3.88867 
0.120728 0.95166 -3.88281 
0.13916 0.952637 -3.88672 
0.157349 0.950684 -3.87891 
0.175293 0.94873 -3.87109 
0.193359 0.947266 -3.86523 
0.211548 0.946777 -3.86328 
0.230103 0.948242 -3.86914 
0.248657 0.949219 -3.87305 
0.267578 0.951172 -3.88086 
0.285889 0.951172 -3.88086 
0.304443 0.95166 -3.88281 
0.323975 0.955078 -3.89648 
0.342285 0.955078 -3.89648 
0.36084 0.955078 -3.89648 
0.37915 0.955078 -3.89648 
0.454834 0.958984 -3.91211 
0.476563 0.965332 -3.9375 
0.495117 0.965332 -3.93945 
0.513184 0.964844 -3.93555 
0.53125 0.963867 -3.93164 
0.549805 0.962891 -3.92969 
0.567871 0.962402 -3.92578 
0.585938 0.961426 -3.92383 
0.604492 0.961426 -3.92383 
0.624023 0.962891 -3.92773 
0.642578 0.963379 -3.92969 
0.661621 0.963867 -3.93359 
0.681152 0.965332 -3.9375 
0.700684 0.96582 -3.94141 
0.71875 0.965332 -3.9375 
0.737305 0.965332 -3.93945 
0.75293 0.961426 -3.92383 
0.770996 0.960449 -3.91992 
0.787109 0.958008 -3.91016 
0.805664 0.958008 -3.91016 
0.82373 0.95752 -3.90625 
0.842285 0.95752 -3.9082 
0.862305 0.958984 -3.91406 
0.883301 0.961914 -3.92578 
0.902344 0.962402 -3.92773 
0.918457 0.959961 -3.91602 
0.940918 0.963867 -3.93164 
0.958984 0.963379 -3.92969 
0.976074 0.961914 -3.92383 
0.992676 0.959961 -3.91797 
1.01074 0.959961 -3.91797 
1.02637 0.957031 -3.9043 
1.0332 0.946289 -3.86133 
1.04199 0.9375 -3.82422 
1.05176 0.930176 -3.79492 
1.07227 0.932617 -3.80664 
1.08398 0.927734 -3.78516 
1.10059 0.92627 -3.7793 
1.10742 0.91748 -3.74219 
1.11426 0.908203 -3.70508 
1.12109 0.899414 -3.66992 
1.12891 0.89209 -3.64063 
1.13965 0.886719 -3.61719 
1.15137 0.882813 -3.60156 
1.16406 0.879883 -3.58984 
1.17773 0.876953 -3.57813 
1.18848 0.872559 -3.56055 
1.19629 0.865723 -3.5332 
1.20117 0.857422 -3.49805 
1.20313 0.847656 -3.45898 
1.20605 0.837891 -3.41992 
1.20898 0.829102 -3.38281 
1.21387 0.821289 -3.35156 
1.21875 0.813965 -3.32031 
1.22363 0.806641 -3.29102 
1.22852 0.799805 -3.26367 
1.23242 0.792969 -3.23438 
1.23633 0.785156 -3.20508 
1.24023 0.777832 -3.17383 
1.24219 0.77002 -3.14258 
1.24316 0.761719 -3.10742 
1.24414 0.753418 -3.07422 
1.24414 0.744629 -3.03906 
1.24414 0.73584 -3.00195 
1.24219 0.726563 -2.96484 
1.24023 0.717285 -2.92773 
1.23828 0.708496 -2.89063 
1.2373 0.700195 -2.85547 
1.2373 0.692383 -2.82422 
1.23828 0.685547 -2.79688 
1.24023 0.679199 -2.77148 
1.24414 0.674316 -2.75 
1.24902 0.669922 -2.73438 
1.25586 0.666992 -2.7207 
1.26465 0.664551 -2.71094 
1.27539 0.663574 -2.70703 
1.28906 0.664063 -2.70898 
1.30566 0.666016 -2.7168 
1.32715 0.67041 -2.73438 
1.3457 0.67334 -2.74609 
1.40234 0.694824 -2.83594 
1.43262 0.703125 -2.86914 
1.47363 0.716309 -2.92188 
1.51758 0.730957 -2.98242 
1.6582 0.791016 -3.22852 
1.62402 0.768066 -3.13281 
1.62988 0.763672 -3.11523 
1.66504 0.772949 -3.1543 
1.70996 0.786621 -3.21094 
1.6709 0.762207 -3.10938 
1.66992 0.754883 -3.08203 
1.69727 0.760742 -3.10352 
1.66992 0.742188 -3.02734 
1.62793 0.717285 -2.92578 
1.59473 0.696777 -2.8418 
1.56445 0.677734 -2.76563 
1.52539 0.655273 -2.67383 
1.4668 0.625 -2.55078 
1.41602 0.598633 -2.44336 
1.37207 0.575195 -2.3457 
1.3457 0.55957 -2.2832 
1.3291 0.54834 -2.23828 
1.31738 0.539063 -2.19922 
1.30957 0.531738 -2.16992 
1.30371 0.525391 -2.14258 
1.30078 0.52002 -2.12109 
1.29883 0.515137 -2.10156 
1.29785 0.51123 -2.08594 
1.29883 0.507324 -2.07031 
1.29883 0.503418 -2.05469 
1.29883 0.5 -2.03906 
1.29883 0.496338 -2.02539 
1.2998 0.493164 -2.01172 
1.30176 0.490234 -2 
1.30371 0.487549 -1.98926 
1.30762 0.485596 -1.98145 
1.31055 0.483154 -1.97168 
1.31445 0.480957 -1.96191 
1.29883 0.471924 -1.92578 
1.30957 0.472412 -1.92773 
1.31055 0.469727 -1.91699 
1.31055 0.466553 -1.9043 
1.31152 0.463623 -1.8916 
1.31152 0.460449 -1.87891 
1.31152 0.457275 -1.86621 
1.31055 0.454102 -1.85254 
1.30957 0.450684 -1.83887 
1.30859 0.447266 -1.82422 
1.30566 0.443604 -1.80957 
1.30469 0.439941 -1.7959 
1.30176 0.436279 -1.78027 
1.29883 0.432617 -1.76563 
1.2959 0.428955 -1.75 
1.29492 0.425781 -1.7373 
1.29297 0.422607 -1.72461 
1.29297 0.419922 -1.71289 
1.29395 0.417725 -1.7041 
1.2959 0.415771 -1.69629 
1.2998 0.414307 -1.69043 
1.30273 0.412842 -1.68457 
1.30664 0.411377 -1.67773 
1.30859 0.409424 -1.6709 
1.31152 0.407715 -1.66406 
1.3125 0.405762 -1.65625 
1.31445 0.403809 -1.64844 
1.31445 0.401611 -1.63867 
1.31543 0.399414 -1.62988 
1.31543 0.397217 -1.62109 
1.31543 0.39502 -1.61133 
1.31543 0.392578 -1.60156 
1.31543 0.390381 -1.59277 
1.31445 0.387939 -1.58301 
1.31445 0.385742 -1.57324 
1.31348 0.383301 -1.56348 
1.3125 0.380859 -1.55371 
1.31055 0.37793 -1.54297 
1.30762 0.375 -1.53027 
1.30469 0.37207 -1.51855 
1.30176 0.369385 -1.50781 
1.30078 0.366943 -1.49707 
1.2998 0.364746 -1.48828 
1.2998 0.362793 -1.48047 
1.30078 0.361328 -1.47461 
1.30273 0.359863 -1.46777 
1.30469 0.358398 -1.46191 
1.30469 0.356689 -1.45508 
1.30566 0.35498 -1.44824 
1.30469 0.352783 -1.43945 
1.30273 0.350586 -1.42969 
1.30176 0.348389 -1.4209 
1.30078 0.346191 -1.41309 
1.2998 0.344238 -1.40527 
1.30078 0.342773 -1.39941 
1.30273 0.341553 -1.39355 
1.30566 0.340576 -1.38965 
1.30859 0.3396 -1.38574 
1.3125 0.338867 -1.38281 
1.31445 0.337891 -1.37891 
1.31738 0.336914 -1.375 
1.32031 0.335938 -1.37109 
1.32324 0.334961 -1.36719 
1.32422 0.33374 -1.3623 
1.32715 0.332764 -1.35742 
1.32813 0.331543 -1.35254 
1.33105 0.330566 -1.34863 
1.33301 0.32959 -1.34473 
1.33008 0.327148 -1.33496 
1.33887 0.327881 -1.33789 
1.34277 0.327393 -1.33594 
-1.2373 0.312012 -1.29883 
-1.23438 0.312744 -1.30176 
-1.23145 0.313721 -1.30566 
-1.23047 0.314941 -1.31055 
-1.22852 0.316162 -1.31543 
-1.22949 0.317871 -1.32227 
-1.22852 0.319336 -1.3291 
-1.22852 0.321045 -1.33594 
-1.22852 0.322754 -1.34277 
-1.22852 0.324463 -1.34961 
-1.22852 0.326172 -1.35645 
-1.22949 0.328125 -1.36523 
-1.22949 0.329834 -1.37207 
-1.23047 0.331543 -1.37988 
-1.23047 0.333496 -1.3877 
-1.23047 0.335205 -1.39453 
-1.23047 0.337158 -1.40332 
-1.23047 0.338867 -1.41016 
-1.23145 0.341064 -1.41895 
-1.23145 0.343018 -1.42676 
-1.23242 0.345215 -1.43652 
-1.2334 0.347412 -1.44531 
-1.2334 0.349365 -1.45313 
-1.23438 0.351318 -1.46191 
-1.23438 0.353516 -1.47168 
-1.23535 0.355713 -1.48047 
-1.23633 0.358154 -1.49023 
-1.23828 0.360596 -1.5 
-1.23926 0.363037 -1.51074 
-1.24121 0.365723 -1.52148 
-1.24316 0.368408 -1.53223 
-1.24512 0.371338 -1.54492 
-1.24707 0.373779 -1.55566 
-1.24805 0.376465 -1.56641 
-1.24902 0.37915 -1.57813 
-1.25 0.381592 -1.58789 
-1.25098 0.384277 -1.59863 
-1.25098 0.386719 -1.6084 
-1.25098 0.38916 -1.61914 
-1.25195 0.391846 -1.62988 
-1.25293 0.394287 -1.64063 
-1.25293 0.396729 -1.65137 
-1.25293 0.399414 -1.66211 
-1.25488 0.402344 -1.67383 
-1.25488 0.405029 -1.68555 
-1.25586 0.407959 -1.69727 
-1.25684 0.410889 -1.70898 
-1.25781 0.413818 -1.72266 
-1.25879 0.416748 -1.73438 
-1.25977 0.419922 -1.74707 
-1.26172 0.42334 -1.76172 
-1.26367 0.426758 -1.77539 
-1.26465 0.430176 -1.78906 
-1.26563 0.43335 -1.80273 
-1.26563 0.436035 -1.81445 
-1.26563 0.438965 -1.82617 
-1.26367 0.44165 -1.83789 
-1.26367 0.44458 -1.84961 
-1.26367 0.447754 -1.8623 
-1.26758 0.452393 -1.88184 
-1.26855 0.455566 -1.89551 
-1.26953 0.459229 -1.91113 
-1.27051 0.462891 -1.92578 
-1.27051 0.466553 -1.94141 
-1.27148 0.470215 -1.95605 
-1.27246 0.473877 -1.97168 
-1.27246 0.477295 -1.98633 
-1.27344 0.481201 -2.00195 
-1.27344 0.484863 -2.01758 
-1.27246 0.488281 -2.03125 
-1.27246 0.491943 -2.04688 
-1.27148 0.495605 -2.06055 
-1.27148 0.499268 -2.07617 
-1.27246 0.503418 -2.09375 
-1.27441 0.508301 -2.11523 
-1.27734 0.513184 -2.13477 
-1.28027 0.518555 -2.1582 
-1.2832 0.523926 -2.17969 
-1.28711 0.529785 -2.20313 
-1.29004 0.535156 -2.22656 
-1.29199 0.540527 -2.24805 
-1.29297 0.54541 -2.26953 
-1.29395 0.550781 -2.29102 
-1.2959 0.556152 -2.3125 
-1.29688 0.561035 -2.33594 
-1.29883 0.566895 -2.35742 
-1.2998 0.572266 -2.38086 
-1.30078 0.577637 -2.40234 
-1.30078 0.58252 -2.42383 
-1.30176 0.588379 -2.44727 
-1.30273 0.59375 -2.4707 
-1.30371 0.599609 -2.49609 
-1.30566 0.605957 -2.52148 
-1.30762 0.612793 -2.55078 
-1.31055 0.620117 -2.58008 
-1.31445 0.627441 -2.60938 
-1.31738 0.634766 -2.64063 
-1.32031 0.64209 -2.67188 
-1.32324 0.649902 -2.70508 
-1.32617 0.657715 -2.73633 
-1.32813 0.665527 -2.76953 
-1.33105 0.67334 -2.80078 
-1.33398 0.681641 -2.83594 
-1.33594 0.689453 -2.86914 
-1.33789 0.697754 -2.9043 
-1.33984 0.705566 -2.93555 
-1.33984 0.713379 -2.96875 
-1.33984 0.721191 -3 
-1.33984 0.728516 -3.03125 
-1.33984 0.736328 -3.06445 
-1.34082 0.745117 -3.10156 
-1.34473 0.755371 -3.14258 
-1.34961 0.766602 -3.19141 
-1.35547 0.778809 -3.24023 
-1.36035 0.790527 -3.28906 
-1.36328 0.801758 -3.33594 
-1.36426 0.811523 -3.37695 
-1.3623 0.819824 -3.41211 
-1.35742 0.82666 -3.4375 
-1.34863 0.831055 -3.45898 
-1.33789 0.834473 -3.47266 
-1.32617 0.837402 -3.48438 
-1.31348 0.840332 -3.49609 
-1.30176 0.84375 -3.50977 
-1.29004 0.84668 -3.52148 
-1.27734 0.849121 -3.5332 
-1.26367 0.851074 -3.54102 
-1.24902 0.852539 -3.54688 
-1.2334 0.853027 -3.55078 
-1.2168 0.853516 -3.55078 
-1.19922 0.853516 -3.55078 
-1.18262 0.853516 -3.55078 
-1.16602 0.853516 -3.55078 
-1.14941 0.853516 -3.55078 
-1.13281 0.853516 -3.55078 
-1.11523 0.853516 -3.55078 
-1.09863 0.853027 -3.54883 
-1.08105 0.852539 -3.54688 
-1.0625 0.851074 -3.54102 
-1.04395 0.849609 -3.53516 
-1.02539 0.848145 -3.5293 
-1.00586 0.845703 -3.51953 
-0.986816 0.84375 -3.50977 
-0.968262 0.841797 -3.50195 
-0.951172 0.841309 -3.5 
-0.935547 0.842285 -3.50391 
-0.92041 0.84375 -3.50977 
-0.905762 0.845703 -3.51758 
-0.891113 0.847168 -3.52539 
-0.875488 0.848145 -3.5293 
-0.859863 0.849121 -3.5332 
-0.84375 0.850098 -3.53711 
-0.828125 0.851074 -3.54102 
-0.813477 0.853027 -3.55078 
-0.79834 0.855469 -3.55859 
-0.783691 0.857422 -3.56836 
-0.768555 0.859375 -3.57617 
-0.75293 0.86084 -3.58203 
-0.736816 0.862305 -3.58789 
-0.720703 0.863281 -3.5918 
-0.70459 0.864258 -3.5957 
-0.688477 0.865723 -3.60156 
-0.672852 0.867188 -3.60742 
-0.656738 0.868164 -3.61133 
-0.639648 0.868652 -3.61328 
-0.623047 0.868652 -3.61523 
-0.605469 0.868652 -3.61328 
-0.588379 0.868164 -3.61328 
-0.571289 0.868164 -3.61328 
-0.554199 0.868164 -3.61328 
-0.537109 0.868164 -3.61133 
-0.52002 0.868164 -3.61133 
-0.502441 0.868164 -3.61133 
-0.485352 0.867676 -3.60938 
-0.468018 0.867188 -3.60742 
-0.450439 0.866211 -3.60352 
-0.432617 0.864746 -3.59766 
-0.414795 0.862793 -3.58984 
-0.396973 0.86084 -3.58008 
-0.378906 0.858398 -3.57227 
-0.361084 0.856445 -3.5625 
-0.343506 0.854492 -3.55469 
-0.326416 0.853516 -3.55078 
-0.309326 0.853027 -3.55078 
-0.292969 0.854004 -3.55469 
-0.276855 0.856445 -3.5625 
-0.260986 0.859863 -3.57617 
-0.245483 0.864746 -3.59766 
-0.230103 0.870605 -3.62305 
-0.214844 0.878418 -3.65625 
-0.199707 0.888184 -3.69531 
-0.184326 0.898438 -3.73828 
-0.168457 0.908203 -3.7793 
-0.1521 0.91748 -3.81641 
-0.135254 0.925293 -3.84961 
-0.117859 0.931641 -3.87695 
-0.100098 0.937012 -3.89844 
-0.0819702 0.940918 -3.91602 
-0.0635986 0.943359 -3.92578 
-0.0450745 0.943848 -3.92578 
-0.0265045 0.943848 -3.92578 
-0.00796509 0.947266 -3.94141 
0.0106888 0.948242 -3.94531 
0.0290527 0.938477 -3.9043 
0.0474548 0.9375 -3.90039 
0.06604 0.938965 -3.9082 
0.0842285 0.936035 -3.89453 
0.102478 0.934082 -3.88672 
0.120667 0.932617 -3.88086 
0.139038 0.932617 -3.88086 
0.157593 0.934082 -3.88672 
0.175659 0.932617 -3.88086 
0.193848 0.931641 -3.87695 
0.212158 0.931641 -3.87695 
0.230713 0.932129 -3.87891 
0.249512 0.933594 -3.88477 
0.267822 0.934082 -3.88672 
0.286133 0.933594 -3.88477 
0.304688 0.934082 -3.88672 
0.323975 0.937012 -3.89844 
0.342773 0.937988 -3.90234 
0.36084 0.936523 -3.89648 
0.379395 0.937012 -3.89844 
0.454346 0.939453 -3.91016 
0.477051 0.947754 -3.94336 
0.49585 0.948242 -3.94531 
0.51416 0.947754 -3.94336 
0.529297 0.941895 -3.91797 
0.547852 0.940918 -3.91602 
0.565918 0.94043 -3.91406 
0.583984 0.939941 -3.91211 
0.605469 0.944824 -3.92969 
0.625 0.946289 -3.93555 
0.64209 0.943848 -3.92773 
0.663086 0.947266 -3.94141 
0.682617 0.948242 -3.94531 
0.70166 0.949219 -3.94922 
0.717285 0.944824 -3.92969 
0.73584 0.944824 -3.92969 
0.753906 0.943848 -3.92773 
0.769043 0.939941 -3.91211 
0.787109 0.939453 -3.9082 
0.805664 0.939453 -3.9082 
0.823242 0.937988 -3.90234 
0.842285 0.938965 -3.90625 
0.861328 0.939453 -3.91016 
0.882813 0.942871 -3.92383 
0.900879 0.942383 -3.92188 
0.922852 0.945801 -3.93555 
0.939453 0.943848 -3.92773 
0.956543 0.942383 -3.92188 
0.973145 0.94043 -3.91406 
0.995117 0.943848 -3.92578 
1.01172 0.941895 -3.91992 
1.02734 0.939453 -3.9082 
1.04102 0.935059 -3.89063 
1.05469 0.930664 -3.87305 
1.06738 0.925781 -3.85156 
1.0791 0.92041 -3.82813 
1.08984 0.914551 -3.80469 
1.09863 0.906738 -3.77148 
1.10547 0.897949 -3.73633 
1.1123 0.88916 -3.69922 
1.11914 0.880859 -3.66406 
1.12793 0.874023 -3.63672 
1.1377 0.868652 -3.61328 
1.15039 0.865234 -3.59961 
1.16406 0.862793 -3.58984 
1.17773 0.860352 -3.57813 
1.18945 0.856445 -3.56445 
1.19824 0.850586 -3.53906 
1.2041 0.843262 -3.50781 
1.20801 0.834473 -3.4707 
1.21094 0.825195 -3.43359 
1.21484 0.816406 -3.39648 
1.21875 0.808594 -3.36328 
1.22266 0.800781 -3.33203 
1.22656 0.793457 -3.30078 
1.23047 0.785645 -3.26953 
1.23438 0.77832 -3.23828 
1.2373 0.770996 -3.20703 
1.24023 0.763672 -3.17578 
1.24316 0.755859 -3.14453 
1.24512 0.748047 -3.11133 
1.24609 0.740234 -3.07813 
1.24707 0.731934 -3.04492 
1.24609 0.723145 -3.00781 
1.24512 0.714355 -2.9707 
1.24316 0.705078 -2.93359 
1.24121 0.696289 -2.89648 
1.23926 0.6875 -2.86133 
1.23926 0.680176 -2.82813 
1.23926 0.672852 -2.80078 
1.24121 0.666504 -2.77344 
1.24414 0.661133 -2.75195 
1.24805 0.656738 -2.73242 
1.25391 0.652832 -2.7168 
1.26074 0.649902 -2.70508 
1.26953 0.647949 -2.69531 
1.28027 0.646973 -2.69141 
1.29395 0.647461 -2.69336 
1.3125 0.649902 -2.70508 
1.33203 0.65332 -2.71875 
1.35742 0.659668 -2.74414 
1.40723 0.677246 -2.81836 
1.44434 0.688477 -2.86523 
1.48145 0.699707 -2.91211 
1.50195 0.702637 -2.92383 
1.64746 0.76416 -3.17773 
1.60254 0.736328 -3.0625 
1.68555 0.767578 -3.19336 
1.69922 0.766602 -3.19141 
1.61914 0.724121 -3.01367 
1.625 0.720703 -2.99805 
1.72168 0.756836 -3.14844 
1.70898 0.744629 -3.09766 
1.59473 0.688965 -2.86719 
1.5625 0.669434 -2.78516 
1.54102 0.654785 -2.72461 
1.54883 0.652344 -2.71484 
1.43555 0.599609 -2.49609 
1.40918 0.583984 -2.42969 
1.37402 0.564941 -2.34961 
1.35059 0.550781 -2.29102 
1.33398 0.539551 -2.24414 
1.32129 0.530273 -2.20703 
1.31348 0.522949 -2.17578 
1.30664 0.516602 -2.14844 
1.30273 0.510742 -2.125 
1.30078 0.505859 -2.10547 
1.29883 0.501465 -2.08789 
1.2998 0.498047 -2.07227 
1.2998 0.494385 -2.05664 
1.2998 0.490723 -2.04102 
1.2998 0.487061 -2.02539 
1.2998 0.483398 -2.01172 
1.2998 0.47998 -1.99707 
1.30078 0.476807 -1.98438 
1.30176 0.474121 -1.97266 
1.29688 0.46875 -1.9502 
1.29688 0.465332 -1.93652 
1.2959 0.46167 -1.9209 
1.30078 0.460449 -1.91602 
1.30273 0.457764 -1.90527 
1.30371 0.454834 -1.89258 
1.30566 0.452637 -1.88281 
1.30664 0.449951 -1.87207 
1.30859 0.44751 -1.86133 
1.30957 0.444824 -1.85059 
1.31055 0.442139 -1.83984 
1.31055 0.439209 -1.82813 
1.30859 0.435791 -1.81348 
1.30762 0.432617 -1.7998 
1.30469 0.428955 -1.78418 
1.30176 0.425293 -1.76953 
1.2998 0.421875 -1.75488 
1.29785 0.418457 -1.74121 
1.2959 0.415283 -1.72852 
1.2959 0.412598 -1.71582 
1.2959 0.410156 -1.70605 
1.29688 0.407959 -1.69727 
1.29883 0.406006 -1.68945 
1.30078 0.404053 -1.68066 
1.30371 0.402344 -1.67383 
1.30566 0.400635 -1.66699 
1.30762 0.398682 -1.65918 
1.30859 0.396729 -1.65137 
1.30957 0.394531 -1.6416 
1.31055 0.392578 -1.63379 
1.31152 0.390869 -1.62598 
1.31348 0.388916 -1.61816 
1.31445 0.386963 -1.60938 
1.31543 0.38501 -1.60156 
1.31543 0.382813 -1.59277 
1.31641 0.380859 -1.58496 
1.31738 0.378906 -1.57715 
1.31641 0.376709 -1.56738 
1.31543 0.374268 -1.55762 
1.31445 0.37207 -1.54785 
1.3125 0.369385 -1.53613 
1.31055 0.366699 -1.52539 
1.30762 0.364014 -1.51465 
1.30762 0.361816 -1.50586 
1.30762 0.359863 -1.49707 
1.30762 0.35791 -1.48926 
1.30957 0.356445 -1.4834 
1.30957 0.354736 -1.47656 
1.30957 0.352783 -1.46777 
1.31055 0.351318 -1.46094 
1.30957 0.349121 -1.45215 
1.30664 0.34668 -1.44238 
1.30469 0.344238 -1.43164 
1.30176 0.341797 -1.42188 
1.2998 0.339355 -1.41211 
1.29883 0.337402 -1.4043 
1.2998 0.335938 -1.39844 
1.30176 0.334717 -1.39258 
1.30469 0.33374 -1.38867 
1.30762 0.332764 -1.38477 
1.31055 0.331787 -1.38086 
1.31348 0.331055 -1.37793 
1.31641 0.330322 -1.37402 
1.31836 0.329102 -1.36914 
1.32031 0.327881 -1.36426 
1.32129 0.32666 -1.3584 
1.32227 0.325195 -1.35254 
1.32324 0.323975 -1.34766 
1.3252 0.322754 -1.34277 
1.32422 0.321045 -1.33594 
1.32617 0.320068 -1.33203 
1.33105 0.31958 -1.33008 
1.33789 0.319824 -1.33105 
-1.23828 0.306152 -1.2998 
-1.23535 0.306885 -1.30273 
-1.23145 0.307617 -1.30566 
-1.23047 0.308838 -1.31055 
-1.22852 0.310059 -1.31543 
-1.22852 0.311523 -1.32129 
-1.22852 0.312988 -1.3291 
-1.22852 0.314697 -1.33594 
-1.22852 0.316406 -1.34277 
-1.22852 0.318115 -1.34961 
-1.22852 0.31958 -1.35645 
-1.22852 0.321289 -1.36426 
-1.22949 0.323242 -1.37207 
-1.23047 0.325195 -1.37988 
-1.22949 0.32666 -1.38672 
-1.23047 0.328613 -1.39453 
-1.23047 0.330566 -1.40332 
-1.23145 0.33252 -1.41113 
