ply
format ascii 1.0
comment pointcloud saved from Realsense Viewer
element vertex 2438
property float32 x
property float32 y
property float32 z
property uchar red
property uchar green
property uchar blue
end_header
-1.3125 -0.84375 -3.7793 
108 0 0 
-1.29883 -0.846191 -3.78906 
105 0 0 
-1.28223 -0.847656 -3.79492 
104 0 0 
-1.26367 -0.84668 -3.79297 
104 0 0 
-1.24219 -0.844238 -3.78125 
106 0 0 
-1.22363 -0.844238 -3.78125 
108 0 0 
-0.447266 -0.57959 -2.5957 
254 146 0 
-0.433105 -0.577148 -2.58398 
254 152 0 
-0.421143 -0.577148 -2.58594 
254 152 0 
-0.409424 -0.577637 -2.58789 
254 151 0 
-0.397461 -0.578125 -2.58984 
254 148 0 
-0.38623 -0.57959 -2.59766 
254 139 0 
-0.374756 -0.581055 -2.60352 
0 0 0 
-0.362549 -0.581543 -2.60352 
0 0 0 
-0.351074 -0.583008 -2.61133 
0 0 0 
-0.331543 -0.592285 -2.65234 
0 0 0 
-0.319336 -0.592773 -2.65625 
0 0 0 
-0.308838 -0.59668 -2.67383 
0 0 0 
-0.295654 -0.595703 -2.66797 
0 0 0 
-0.281982 -0.593262 -2.6582 
0 0 0 
-0.27124 -0.597656 -2.67578 
0 0 0 
-0.258057 -0.596191 -2.67188 
0 0 0 
1.33008 -0.820312 -3.67383 
135 0 0 
1.3418 -0.816406 -3.65625 
140 0 0 
1.35156 -0.812012 -3.63672 
145 0 0 
1.3623 -0.807617 -3.61719 
149 0 0 
1.37305 -0.804199 -3.60156 
158 0 0 
1.38477 -0.80127 -3.58789 
158 0 0 
1.39844 -0.798828 -3.57812 
161 0 0 
1.41309 -0.79834 -3.57422 
162 0 0 
1.43066 -0.79834 -3.57422 
162 0 0 
1.44922 -0.798828 -3.57812 
161 0 0 
1.46875 -0.800781 -3.58594 
160 0 0 
1.48828 -0.802246 -3.59375 
158 0 0 
1.50879 -0.804199 -3.60156 
157 0 0 
1.52832 -0.805176 -3.60742 
156 0 0 
1.54883 -0.806641 -3.61328 
155 0 0 
1.56836 -0.808105 -3.62109 
154 0 0 
1.58789 -0.80957 -3.62695 
153 0 0 
1.6084 -0.811035 -3.63281 
150 0 0 
1.62988 -0.812988 -3.64258 
148 0 0 
1.65039 -0.814941 -3.65039 
145 0 0 
1.67285 -0.817383 -3.66211 
141 0 0 
1.69434 -0.819824 -3.67188 
137 0 0 
1.7207 -0.82373 -3.69141 
132 0 0 
1.74219 -0.826172 -3.69922 
0 0 0 
1.76855 -0.830078 -3.7168 
0 0 0 
1.88965 -0.861328 -3.85742 
88 0 0 
1.90625 -0.860352 -3.85352 
0 0 0 
1.14648 -0.411377 -1.84277 
0 247 254 
1.15234 -0.410156 -1.83789 
0 246 254 
1.15723 -0.408936 -1.83203 
0 246 254 
1.16113 -0.407227 -1.82324 
0 246 254 
1.16406 -0.405029 -1.81445 
0 246 254 
1.16797 -0.403564 -1.80762 
0 245 254 
1.17188 -0.4021 -1.80078 
0 244 254 
1.17676 -0.400879 -1.7959 
0 243 254 
1.18359 -0.400391 -1.79395 
0 243 254 
1.19238 -0.400391 -1.79395 
0 243 254 
1.2002 -0.400146 -1.79297 
0 243 254 
1.29102 -0.38916 -1.74316 
0 231 254 
1.30273 -0.390381 -1.74805 
0 232 254 
1.3125 -0.390869 -1.75 
0 233 254 
1.31641 -0.389404 -1.74414 
0 231 254 
1.32812 -0.390381 -1.74805 
0 230 254 
1.33691 -0.390625 -1.74902 
0 232 254 
1.3457 -0.390869 -1.75 
0 232 254 
1.35156 -0.390137 -1.74707 
0 231 254 
1.3584 -0.389648 -1.74512 
0 230 254 
1.36328 -0.388428 -1.74023 
0 228 254 
1.36816 -0.387695 -1.73633 
0 227 254 
1.37207 -0.386475 -1.73145 
0 225 254 
1.37695 -0.385498 -1.72656 
0 223 254 
1.38086 -0.384277 -1.72168 
0 222 254 
1.38477 -0.383057 -1.71582 
0 220 254 
1.38965 -0.382324 -1.71191 
0 218 254 
1.39355 -0.381104 -1.70703 
0 217 254 
1.39844 -0.380127 -1.70312 
0 215 254 
1.40332 -0.379395 -1.69922 
0 214 254 
1.41016 -0.37915 -1.69824 
0 212 254 
1.40234 -0.374756 -1.67871 
0 206 254 
1.40918 -0.374756 -1.67773 
0 205 254 
1.41211 -0.373291 -1.67188 
0 201 254 
1.41406 -0.371826 -1.66504 
0 197 254 
1.41699 -0.370361 -1.65918 
0 193 254 
1.41895 -0.368896 -1.65234 
0 187 254 
1.42188 -0.367432 -1.64551 
0 182 254 
1.42383 -0.366211 -1.63965 
0 179 254 
1.42773 -0.36499 -1.63477 
0 176 254 
1.43164 -0.364014 -1.63086 
0 174 254 
1.43457 -0.363037 -1.62598 
0 170 254 
1.44043 -0.362305 -1.62305 
0 170 254 
1.44336 -0.361084 -1.61816 
0 165 254 
1.44434 -0.359619 -1.61035 
0 160 254 
1.44922 -0.358887 -1.60742 
0 158 254 
1.4541 -0.358154 -1.60449 
0 156 254 
1.45312 -0.355957 -1.59473 
0 145 254 
1.45801 -0.355469 -1.59277 
0 142 254 
1.46094 -0.354492 -1.58789 
0 136 254 
1.4668 -0.354004 -1.58594 
0 134 254 
1.4707 -0.353027 -1.58203 
0 128 254 
1.47656 -0.352783 -1.58008 
0 125 254 
1.48145 -0.352051 -1.57715 
0 121 254 
1.48438 -0.351074 -1.57227 
0 119 254 
1.48828 -0.350098 -1.56836 
0 116 254 
1.49316 -0.349609 -1.56543 
0 115 254 
1.49707 -0.348877 -1.5625 
0 112 254 
1.50195 -0.348145 -1.55957 
0 109 254 
1.50684 -0.347412 -1.55664 
0 106 254 
1.51074 -0.346924 -1.55371 
0 103 254 
1.51562 -0.346191 -1.55078 
0 98 254 
1.52051 -0.345703 -1.54883 
0 96 254 
1.52637 -0.345215 -1.54688 
0 93 254 
1.53223 -0.344971 -1.5459 
0 92 254 
1.53906 -0.344727 -1.54492 
0 91 254 
-1.9502 -0.464355 -2.03516 
0 252 254 
-1.92188 -0.459961 -2.01758 
0 250 254 
-1.91406 -0.460205 -2.01758 
0 250 254 
-1.90527 -0.460449 -2.01953 
0 250 254 
-1.89844 -0.461182 -2.02148 
0 251 254 
-1.89355 -0.462158 -2.02734 
0 251 254 
-1.88965 -0.463623 -2.0332 
0 252 254 
-1.8877 -0.465332 -2.04102 
0 252 254 
-1.88477 -0.467285 -2.04883 
0 253 254 
-1.88281 -0.468994 -2.05664 
0 254 254 
-1.88086 -0.471191 -2.06641 
2 254 253 
-1.87988 -0.473145 -2.07422 
3 254 251 
-1.87793 -0.475342 -2.08398 
4 254 250 
-1.87598 -0.477295 -2.09375 
6 254 248 
-1.875 -0.479736 -2.10352 
9 254 245 
-1.87402 -0.481934 -2.11328 
15 254 239 
-1.87402 -0.484375 -2.125 
26 254 228 
-1.87305 -0.487061 -2.13477 
35 254 219 
-1.875 -0.48999 -2.14844 
55 254 199 
-1.87695 -0.493164 -2.16211 
55 254 199 
-1.87988 -0.496582 -2.17773 
67 254 188 
-1.88379 -0.500488 -2.19531 
79 254 175 
-1.88965 -0.504883 -2.21289 
90 254 164 
-1.89551 -0.508789 -2.23242 
101 254 153 
-1.90137 -0.513184 -2.25195 
111 254 143 
-1.90527 -0.517578 -2.26953 
122 254 132 
-1.9082 -0.520996 -2.28516 
136 254 118 
-1.91113 -0.524902 -2.30273 
149 254 105 
-1.91113 -0.527832 -2.31641 
163 254 91 
-1.91113 -0.530762 -2.33008 
175 254 79 
-1.90918 -0.533691 -2.33984 
186 254 68 
-1.90723 -0.536133 -2.35156 
197 254 57 
-1.90137 -0.537598 -2.35742 
206 254 48 
-1.89551 -0.539062 -2.36523 
212 254 42 
-1.89258 -0.541504 -2.375 
224 254 30 
-1.88379 -0.541992 -2.37891 
227 254 27 
-1.87109 -0.541992 -2.37695 
226 254 28 
-1.85645 -0.541016 -2.37305 
218 254 36 
-1.84082 -0.539551 -2.36719 
212 254 42 
-1.82324 -0.537598 -2.35742 
201 254 53 
-1.80664 -0.535645 -2.34961 
186 254 68 
-1.78223 -0.531738 -2.33398 
172 254 82 
-1.76465 -0.530273 -2.32422 
165 254 89 
-1.74414 -0.527344 -2.3125 
154 254 100 
-1.72852 -0.525879 -2.30664 
148 254 106 
-1.71387 -0.524414 -2.30078 
145 254 109 
-1.70117 -0.523926 -2.29883 
143 254 111 
-1.68848 -0.523438 -2.29688 
141 254 113 
-1.67773 -0.523438 -2.29688 
140 254 114 
-1.66699 -0.523438 -2.29688 
141 254 113 
-1.65625 -0.523438 -2.29688 
142 254 112 
-1.64746 -0.523926 -2.29883 
144 254 111 
-1.6377 -0.524414 -2.30078 
145 254 109 
-1.62793 -0.524902 -2.30273 
147 254 107 
-1.61914 -0.525391 -2.30469 
149 254 105 
-1.60938 -0.525879 -2.30664 
151 254 103 
-1.59863 -0.525879 -2.30664 
152 254 102 
-1.58691 -0.525879 -2.30664 
151 254 103 
-1.57422 -0.525391 -2.30469 
148 254 106 
-1.56055 -0.523926 -2.29883 
145 254 109 
-1.54492 -0.522461 -2.29102 
139 254 115 
-1.52734 -0.520508 -2.2832 
131 254 123 
-1.50879 -0.517578 -2.27148 
122 254 132 
-1.49023 -0.515137 -2.25977 
115 254 139 
-1.46973 -0.511719 -2.24414 
106 254 148 
-1.45117 -0.508789 -2.23242 
99 254 155 
-1.43066 -0.505371 -2.2168 
93 254 161 
-1.41113 -0.501953 -2.20312 
86 254 168 
-1.39746 -0.500977 -2.19727 
82 254 172 
-1.38477 -0.5 -2.19336 
78 254 176 
-1.37598 -0.500977 -2.19727 
78 254 176 
-1.36816 -0.501465 -2.20117 
82 254 172 
-1.35938 -0.502441 -2.20312 
82 254 172 
-1.35156 -0.503418 -2.20703 
84 254 170 
-1.34473 -0.504395 -2.21289 
86 254 168 
-1.33594 -0.505371 -2.21484 
87 254 167 
-1.32715 -0.505859 -2.21875 
89 254 165 
-1.31738 -0.506348 -2.2207 
91 254 163 
-1.30762 -0.506348 -2.22266 
92 254 162 
-1.29688 -0.506348 -2.22266 
93 254 161 
-1.28711 -0.506348 -2.22266 
93 254 161 
-1.27637 -0.506348 -2.22266 
93 254 160 
-1.26562 -0.506348 -2.22266 
94 254 160 
-1.25684 -0.507324 -2.22461 
96 254 159 
-1.24902 -0.508301 -2.22852 
98 254 156 
-1.24219 -0.509766 -2.23633 
102 254 152 
-1.2373 -0.512207 -2.24609 
107 254 147 
-1.23242 -0.514648 -2.25781 
113 254 141 
-1.22852 -0.51709 -2.26953 
120 254 134 
-1.22363 -0.52002 -2.28125 
129 254 125 
-1.21973 -0.522949 -2.29492 
140 254 114 
-1.21582 -0.525879 -2.30664 
150 254 104 
-1.21191 -0.528809 -2.31836 
163 254 91 
-1.20703 -0.53125 -2.33203 
174 254 80 
-1.20215 -0.534668 -2.34375 
186 254 68 
-1.19824 -0.537598 -2.35742 
198 254 56 
-1.19434 -0.541016 -2.37305 
211 254 43 
-1.19141 -0.544434 -2.38867 
223 254 32 
-1.18848 -0.548828 -2.40625 
241 254 13 
-1.1875 -0.553223 -2.42773 
254 245 0 
-1.18652 -0.558594 -2.44922 
254 226 0 
-1.18652 -0.563965 -2.47461 
254 211 0 
-1.18652 -0.569336 -2.49805 
254 196 0 
-1.18555 -0.574707 -2.51953 
254 182 0 
-1.18262 -0.579102 -2.53906 
254 169 0 
-1.17773 -0.58252 -2.55664 
254 159 0 
-1.17188 -0.585938 -2.57031 
254 151 0 
-1.16602 -0.588867 -2.58203 
254 143 0 
-1.1582 -0.59082 -2.5918 
254 136 0 
-1.15039 -0.593262 -2.60352 
254 127 0 
-1.14355 -0.596191 -2.61523 
254 116 0 
-1.13672 -0.599121 -2.62891 
254 103 0 
-1.15137 -0.613281 -2.69141 
254 76 0 
-1.15039 -0.620117 -2.71875 
254 62 0 
-1.15039 -0.626953 -2.75 
254 50 0 
-1.15527 -0.637207 -2.79297 
254 31 0 
-1.16797 -0.651367 -2.85547 
254 13 0 
-1.17773 -0.664551 -2.91406 
254 1 0 
-1.1748 -0.67041 -2.94141 
249 0 0 
-1.17188 -0.677246 -2.9707 
242 0 0 
-1.16602 -0.682129 -2.99219 
237 0 0 
-1.16016 -0.687012 -3.01367 
233 0 0 
-1.1543 -0.691406 -3.0332 
229 0 0 
-1.14941 -0.697754 -3.06055 
223 0 0 
-1.16992 -0.71875 -3.15234 
198 0 0 
-1.32031 -0.866699 -3.80273 
105 0 0 
-1.30762 -0.870117 -3.81641 
102 0 0 
-1.29102 -0.871582 -3.82227 
99 0 0 
-1.27246 -0.871094 -3.82031 
100 0 0 
-1.24609 -0.865234 -3.79492 
103 0 0 
-0.447021 -0.591309 -2.59375 
254 141 0 
-0.432617 -0.588379 -2.58203 
254 155 0 
-0.420654 -0.588867 -2.58398 
254 155 0 
-0.40918 -0.589844 -2.58789 
254 153 0 
-0.397461 -0.59082 -2.5918 
254 142 0 
-0.386719 -0.593262 -2.60156 
254 136 0 
-0.375977 -0.595215 -2.61133 
254 128 0 
-0.365234 -0.598145 -2.625 
254 118 0 
-0.35376 -0.599609 -2.63086 
254 113 0 
-0.341797 -0.600586 -2.63477 
254 110 0 
-0.331055 -0.604004 -2.64844 
254 99 0 
-0.319824 -0.606445 -2.66016 
0 0 0 
-0.308838 -0.609375 -2.67188 
0 0 0 
-0.294189 -0.605469 -2.65625 
254 94 0 
-0.28125 -0.604492 -2.65234 
254 97 0 
-0.269287 -0.605469 -2.65625 
254 93 0 
1.35742 -0.865723 -3.79883 
108 0 0 
1.33984 -0.843262 -3.69922 
124 0 0 
1.34863 -0.837891 -3.67383 
131 0 0 
1.35645 -0.832031 -3.64844 
139 0 0 
1.36523 -0.82666 -3.62695 
146 0 0 
1.37402 -0.822266 -3.60547 
158 0 0 
1.38477 -0.818359 -3.58984 
158 0 0 
1.39746 -0.815918 -3.57812 
161 0 0 
1.41211 -0.814453 -3.57227 
163 0 0 
1.42969 -0.814453 -3.57227 
163 0 0 
1.44824 -0.81543 -3.57617 
163 0 0 
1.46777 -0.816895 -3.58398 
161 0 0 
1.48828 -0.819336 -3.59375 
159 0 0 
1.50879 -0.820801 -3.60156 
157 0 0 
1.5293 -0.823242 -3.60938 
155 0 0 
1.5498 -0.824707 -3.61719 
154 0 0 
1.57031 -0.826172 -3.625 
152 0 0 
1.58984 -0.827637 -3.63086 
150 0 0 
1.61133 -0.82959 -3.63867 
148 0 0 
1.63184 -0.831543 -3.64648 
146 0 0 
1.65332 -0.833984 -3.6582 
143 0 0 
1.67578 -0.835938 -3.66797 
139 0 0 
1.69727 -0.838379 -3.67773 
136 0 0 
1.72363 -0.842773 -3.69727 
130 0 0 
1.74512 -0.844727 -3.70508 
0 0 0 
1.77148 -0.848633 -3.72266 
0 0 0 
1.89062 -0.879883 -3.85938 
0 0 0 
1.90918 -0.879883 -3.85938 
0 0 0 
1.14453 -0.419434 -1.83984 
0 247 254 
1.14941 -0.417969 -1.83398 
0 246 254 
1.15332 -0.41626 -1.8252 
0 246 254 
1.15723 -0.414307 -1.81738 
0 246 254 
1.16016 -0.412598 -1.80957 
0 245 254 
1.16406 -0.410645 -1.80176 
0 244 254 
1.16797 -0.409424 -1.7959 
0 243 254 
1.17383 -0.408203 -1.79004 
0 243 254 
1.17969 -0.407471 -1.78711 
0 242 254 
1.18555 -0.406494 -1.7832 
0 241 254 
1.19141 -0.405518 -1.77832 
0 240 254 
1.19629 -0.404541 -1.77441 
0 239 254 
1.21777 -0.387207 -1.69824 
0 213 254 
1.22754 -0.387939 -1.70117 
0 215 254 
1.2373 -0.388184 -1.70312 
0 215 254 
1.24707 -0.388672 -1.70508 
0 216 254 
1.25195 -0.387939 -1.70117 
0 215 254 
1.25586 -0.386475 -1.69531 
0 212 254 
1.2666 -0.387451 -1.69922 
0 214 254 
1.27734 -0.388184 -1.70312 
0 215 254 
1.29395 -0.390869 -1.71387 
0 218 254 
1.30664 -0.39209 -1.7207 
0 221 254 
1.31738 -0.392822 -1.72363 
0 223 254 
1.32617 -0.393066 -1.72461 
0 223 254 
1.33301 -0.392822 -1.72363 
0 223 254 
1.34082 -0.392578 -1.72266 
0 222 254 
1.34668 -0.391846 -1.71875 
0 221 254 
1.35254 -0.391357 -1.71582 
0 220 254 
1.3584 -0.390625 -1.71289 
0 218 254 
1.36328 -0.389648 -1.70898 
0 217 254 
1.36816 -0.388916 -1.70605 
0 216 254 
1.37305 -0.388184 -1.70215 
0 215 254 
1.37891 -0.387451 -1.69922 
0 214 254 
1.38477 -0.386719 -1.69629 
0 212 254 
1.39062 -0.385986 -1.69336 
0 211 254 
1.39453 -0.38501 -1.68945 
0 210 254 
1.39453 -0.382812 -1.67871 
0 206 254 
1.39844 -0.381592 -1.67383 
0 203 254 
1.40332 -0.380859 -1.6709 
0 201 254 
1.40723 -0.379883 -1.66602 
0 198 254 
1.41016 -0.378418 -1.66016 
0 194 254 
1.41309 -0.377197 -1.6543 
0 189 254 
1.41504 -0.375732 -1.64844 
0 184 254 
1.41797 -0.374268 -1.6416 
0 180 254 
1.42188 -0.373291 -1.63672 
0 177 254 
1.4248 -0.37207 -1.63184 
0 174 254 
1.42969 -0.371338 -1.62891 
0 174 254 
1.43457 -0.370361 -1.625 
0 167 254 
1.43848 -0.369629 -1.62109 
0 167 254 
1.44238 -0.368652 -1.61719 
0 164 254 
1.44434 -0.367188 -1.61035 
0 160 254 
1.44238 -0.364746 -1.59961 
0 152 254 
1.44727 -0.364014 -1.59668 
0 148 254 
1.45312 -0.363525 -1.59473 
0 145 254 
1.45801 -0.363037 -1.59277 
0 142 254 
1.46094 -0.361816 -1.58691 
0 135 254 
1.46582 -0.361328 -1.58496 
0 132 254 
1.4707 -0.360596 -1.58203 
0 128 254 
1.47559 -0.359863 -1.5791 
0 124 254 
1.48047 -0.359131 -1.5752 
0 119 254 
1.4834 -0.358398 -1.57129 
0 117 254 
1.4873 -0.357422 -1.56738 
0 115 254 
1.49219 -0.356689 -1.56445 
0 112 254 
1.49609 -0.355957 -1.56152 
0 110 254 
1.50098 -0.355225 -1.55859 
0 107 254 
1.50586 -0.354736 -1.55566 
0 105 254 
1.50977 -0.354004 -1.55273 
0 101 254 
1.51562 -0.353516 -1.55078 
0 96 254 
1.52051 -0.353027 -1.54883 
0 95 254 
1.52637 -0.352539 -1.54688 
0 93 254 
1.53223 -0.352295 -1.5459 
0 92 254 
1.53906 -0.352051 -1.54492 
0 91 254 
-1.91504 -0.467529 -2.00977 
0 249 254 
-1.90625 -0.467773 -2.00977 
0 250 254 
-1.89746 -0.468018 -2.01172 
0 250 254 
-1.89062 -0.46875 -2.01367 
0 250 254 
-1.88574 -0.469971 -2.01953 
0 250 254 
-1.88281 -0.47168 -2.02539 
0 251 254 
-1.88086 -0.473389 -2.0332 
0 252 254 
-1.87891 -0.475342 -2.04297 
0 252 254 
-1.87695 -0.477539 -2.05078 
0 253 254 
-1.87695 -0.479736 -2.06055 
1 254 254 
-1.875 -0.481934 -2.07031 
2 254 252 
-1.87402 -0.484131 -2.08008 
4 254 250 
-1.87305 -0.486572 -2.08984 
5 254 249 
-1.87207 -0.48877 -2.09961 
8 254 246 
-1.87109 -0.491211 -2.10938 
13 254 241 
-1.87109 -0.493896 -2.12109 
23 254 231 
-1.87109 -0.496338 -2.13281 
32 254 222 
-1.87109 -0.499268 -2.14453 
53 254 201 
-1.87207 -0.501953 -2.1582 
53 254 201 
-1.875 -0.505371 -2.17188 
64 254 190 
-1.87793 -0.509277 -2.1875 
75 254 179 
-1.88184 -0.513184 -2.20508 
86 254 168 
-1.88574 -0.51709 -2.22266 
96 254 159 
-1.88965 -0.520996 -2.23828 
105 254 149 
-1.8916 -0.524414 -2.25195 
112 254 141 
-1.89258 -0.527344 -2.26758 
121 254 133 
-1.89258 -0.530762 -2.2793 
131 254 123 
-1.8916 -0.533203 -2.29102 
140 254 114 
-1.88965 -0.536133 -2.30273 
149 254 105 
-1.88672 -0.538086 -2.3125 
159 254 95 
-1.88379 -0.540527 -2.32227 
169 254 85 
-1.87695 -0.541992 -2.32812 
176 254 78 
-1.87012 -0.542969 -2.33398 
182 254 72 
-1.87109 -0.546387 -2.34766 
205 254 49 
-1.86621 -0.54834 -2.35547 
210 254 44 
-1.85254 -0.547852 -2.35352 
211 254 43 
-1.83887 -0.546875 -2.34961 
201 254 53 
-1.82227 -0.544922 -2.3418 
192 254 62 
-1.80371 -0.542969 -2.33398 
177 254 77 
-1.78613 -0.541016 -2.32422 
156 254 98 
-1.75586 -0.535156 -2.29883 
138 254 116 
-1.73633 -0.532227 -2.28711 
130 254 124 
-1.71191 -0.527832 -2.26953 
119 254 135 
-1.69434 -0.526367 -2.26172 
115 254 139 
-1.67969 -0.524902 -2.25391 
111 254 143 
-1.66602 -0.523926 -2.25 
109 254 145 
-1.65332 -0.523438 -2.24805 
108 254 146 
-1.64258 -0.522949 -2.24805 
107 254 147 
-1.63281 -0.523438 -2.24805 
108 254 146 
-1.62305 -0.523926 -2.25 
109 254 145 
-1.61523 -0.524414 -2.25391 
111 254 144 
-1.60645 -0.525391 -2.25781 
113 254 141 
-1.59863 -0.526367 -2.26172 
116 254 138 
-1.58984 -0.526855 -2.26367 
118 254 136 
-1.58105 -0.527344 -2.26758 
119 254 135 
-1.57227 -0.527832 -2.26953 
120 254 134 
-1.56152 -0.52832 -2.26953 
121 254 133 
-1.5498 -0.527832 -2.26758 
120 254 134 
-1.53711 -0.526855 -2.26562 
118 254 136 
-1.52148 -0.525391 -2.25781 
114 254 140 
-1.50586 -0.523438 -2.25 
109 254 145 
-1.48828 -0.520996 -2.24023 
104 254 150 
-1.46973 -0.518555 -2.22852 
97 254 157 
-1.4502 -0.515625 -2.21484 
91 254 163 
-1.43164 -0.512207 -2.20117 
84 254 170 
-1.41309 -0.509766 -2.18945 
76 254 178 
-1.39551 -0.506836 -2.17773 
69 254 185 
-1.38184 -0.505371 -2.17188 
64 254 190 
-1.36914 -0.504883 -2.16797 
59 254 195 
-1.36035 -0.504883 -2.16992 
59 254 195 
-1.35059 -0.505371 -2.17188 
62 254 191 
-1.34277 -0.506348 -2.17578 
62 254 191 
-1.33496 -0.507324 -2.17969 
64 254 190 
-1.32715 -0.508301 -2.18359 
67 254 187 
-1.31934 -0.509277 -2.18945 
69 254 185 
-1.31055 -0.510254 -2.19141 
72 254 182 
-1.30273 -0.510742 -2.19531 
74 254 180 
-1.29297 -0.51123 -2.19727 
75 254 179 
-1.2832 -0.51123 -2.19727 
77 254 177 
-1.27246 -0.51123 -2.19727 
78 254 176 
-1.26367 -0.511719 -2.19922 
80 254 174 
-1.25391 -0.512207 -2.20117 
82 254 172 
-1.24609 -0.513184 -2.20508 
84 254 170 
-1.23828 -0.514648 -2.21094 
88 254 166 
-1.2334 -0.516602 -2.21875 
93 254 161 
-1.22852 -0.519043 -2.23047 
98 254 156 
-1.22559 -0.521973 -2.24414 
105 254 149 
-1.22168 -0.525391 -2.25781 
112 254 141 
-1.21777 -0.52832 -2.26953 
120 254 134 
-1.21387 -0.53125 -2.2832 
130 254 124 
-1.20996 -0.53418 -2.29492 
141 254 113 
-1.20605 -0.537109 -2.30859 
152 254 102 
-1.20117 -0.540039 -2.32031 
164 254 90 
-1.19727 -0.542969 -2.33398 
176 254 78 
-1.19336 -0.546387 -2.34766 
188 254 66 
-1.18945 -0.549805 -2.36328 
202 254 52 
-1.1875 -0.554199 -2.38086 
216 254 38 
-1.18652 -0.559082 -2.40234 
234 254 20 
-1.18652 -0.564453 -2.42383 
254 249 0 
-1.18652 -0.569824 -2.44922 
254 229 0 
-1.18652 -0.575684 -2.47461 
254 212 0 
-1.18652 -0.581055 -2.49805 
254 197 0 
-1.18555 -0.586426 -2.51953 
254 183 0 
-1.18164 -0.59082 -2.53711 
254 170 0 
-1.17676 -0.594238 -2.55469 
254 160 0 
-1.17188 -0.597656 -2.56836 
254 151 0 
-1.16406 -0.600098 -2.58008 
254 143 0 
-1.15723 -0.602539 -2.58984 
254 136 0 
-1.14941 -0.605469 -2.60156 
254 127 0 
-1.14258 -0.60791 -2.61328 
254 117 0 
-1.1377 -0.612305 -2.63086 
254 103 0 
-1.15039 -0.625977 -2.68945 
254 76 0 
-1.15137 -0.633789 -2.72266 
254 62 0 
-1.1543 -0.64209 -2.75977 
254 49 0 
-1.15918 -0.651855 -2.80273 
0 0 0 
-1.16309 -0.662109 -2.8457 
254 13 0 
-1.18262 -0.681152 -2.92578 
251 0 0 
-1.17773 -0.686523 -2.94922 
246 0 0 
-1.17578 -0.693359 -2.97852 
241 0 0 
-1.16895 -0.697754 -2.99805 
236 0 0 
-1.16309 -0.702637 -3.01953 
232 0 0 
-1.15625 -0.70752 -3.03906 
227 0 0 
-1.15039 -0.712891 -3.0625 
222 0 0 
-1.16406 -0.730469 -3.13867 
197 0 0 
-1.32422 -0.887207 -3.8125 
104 0 0 
-1.31348 -0.892578 -3.83594 
99 0 0 
-1.29688 -0.893066 -3.83789 
97 0 0 
-1.27148 -0.888184 -3.81641 
99 0 0 
-1.25684 -0.890625 -3.82617 
99 0 0 
-0.446289 -0.602539 -2.58984 
254 143 0 
-0.431885 -0.599609 -2.57617 
254 158 0 
-0.420166 -0.600586 -2.58008 
254 157 0 
-0.408691 -0.601562 -2.58398 
254 156 0 
-0.397461 -0.602539 -2.58984 
254 157 0 
-0.38501 -0.602539 -2.58984 
254 143 0 
-0.374268 -0.60498 -2.59961 
254 138 0 
-0.365479 -0.61084 -2.625 
254 118 0 
-0.35376 -0.612305 -2.63086 
254 113 0 
-0.341797 -0.613281 -2.63477 
254 110 0 
-0.330322 -0.614746 -2.64062 
254 104 0 
-0.318115 -0.615723 -2.64453 
254 106 0 
-0.304932 -0.61377 -2.63867 
254 106 0 
-0.291992 -0.613281 -2.63477 
254 109 0 
-0.280273 -0.614746 -2.64062 
254 104 0 
-0.267578 -0.614258 -2.63867 
254 106 0 
-0.25415 -0.612305 -2.63086 
254 113 0 
-0.069519 -0.630371 -2.70898 
254 72 0 
-0.0565186 -0.62793 -2.69922 
254 76 0 
-0.0437012 -0.626953 -2.69531 
254 79 0 
-0.0308838 -0.625977 -2.68945 
254 81 0 
1.27539 -0.928711 -3.99219 
0 0 0 
1.36523 -0.900879 -3.87109 
95 0 0 
1.35254 -0.880371 -3.7832 
106 0 0 
1.35059 -0.868164 -3.73047 
115 0 0 
1.35645 -0.860352 -3.69727 
121 0 0 
1.3623 -0.853027 -3.66602 
132 0 0 
1.36914 -0.84668 -3.63672 
142 0 0 
1.37695 -0.84082 -3.61133 
157 0 0 
1.38574 -0.835938 -3.5918 
157 0 0 
1.39844 -0.833008 -3.57812 
162 0 0 
1.41211 -0.831055 -3.57227 
164 0 0 
1.42871 -0.831055 -3.57031 
165 0 0 
1.44727 -0.832031 -3.57422 
164 0 0 
1.46777 -0.833984 -3.58398 
162 0 0 
1.48828 -0.835938 -3.59375 
160 0 0 
1.50977 -0.838379 -3.60352 
157 0 0 
1.53027 -0.84082 -3.61133 
154 0 0 
1.55176 -0.842773 -3.62109 
152 0 0 
1.57227 -0.844727 -3.62891 
150 0 0 
1.59277 -0.84668 -3.63672 
148 0 0 
1.61328 -0.848145 -3.64453 
146 0 0 
1.63477 -0.850098 -3.65234 
144 0 0 
1.65625 -0.852539 -3.66211 
140 0 0 
1.67773 -0.854492 -3.67188 
137 0 0 
1.7002 -0.857422 -3.68359 
133 0 0 
1.72461 -0.86084 -3.69922 
128 0 0 
1.74805 -0.86377 -3.71094 
124 0 0 
1.77539 -0.868164 -3.73047 
0 0 0 
1.80469 -0.874023 -3.75586 
0 0 0 
1.88867 -0.896973 -3.85547 
0 0 0 
1.91504 -0.900879 -3.87109 
0 0 0 
1.14258 -0.427246 -1.83594 
0 246 254 
1.14648 -0.425537 -1.8291 
0 246 254 
1.15039 -0.423584 -1.82031 
0 245 254 
1.15332 -0.421875 -1.8125 
0 245 254 
1.15625 -0.419678 -1.80371 
0 245 254 
1.16016 -0.417969 -1.79688 
0 243 254 
1.16406 -0.416504 -1.78906 
0 242 254 
1.16992 -0.415283 -1.78418 
0 241 254 
1.17578 -0.414551 -1.78125 
0 240 254 
1.18164 -0.41333 -1.77637 
0 239 254 
1.18652 -0.412354 -1.77148 
0 238 254 
1.19043 -0.410889 -1.76562 
0 237 254 
1.19043 -0.407959 -1.75293 
0 233 254 
1.1875 -0.404053 -1.73633 
0 228 254 
1.1875 -0.401611 -1.72559 
0 224 254 
1.18359 -0.391846 -1.68457 
0 207 254 
1.18848 -0.390869 -1.67969 
0 205 254 
1.19434 -0.390381 -1.67676 
0 204 254 
1.20215 -0.390381 -1.67676 
0 204 254 
1.20996 -0.390137 -1.67578 
0 203 254 
1.21191 -0.388184 -1.66797 
0 199 254 
1.21973 -0.388184 -1.66797 
0 199 254 
1.22656 -0.387939 -1.66699 
0 196 254 
1.23926 -0.389404 -1.67285 
0 199 254 
1.24609 -0.38916 -1.67188 
0 199 254 
1.25684 -0.389893 -1.6748 
0 203 254 
1.27148 -0.39209 -1.68555 
0 207 254 
1.2832 -0.393066 -1.68945 
0 210 254 
1.29297 -0.393799 -1.69238 
0 211 254 
1.30273 -0.394287 -1.69434 
0 212 254 
1.31055 -0.394287 -1.69434 
0 212 254 
1.31934 -0.394287 -1.69434 
0 212 254 
1.32617 -0.394043 -1.69336 
0 211 254 
1.33203 -0.393555 -1.69141 
0 210 254 
1.33887 -0.393066 -1.68945 
0 210 254 
1.3457 -0.392822 -1.68848 
0 209 254 
1.35254 -0.392334 -1.68652 
0 208 254 
1.3584 -0.391846 -1.68457 
0 208 254 
1.36621 -0.391602 -1.68262 
0 207 254 
1.37207 -0.391113 -1.68066 
0 206 254 
1.37891 -0.390869 -1.67871 
0 205 254 
1.38379 -0.390137 -1.67578 
0 203 254 
1.38574 -0.388428 -1.66895 
0 200 254 
1.3916 -0.387695 -1.66602 
0 198 254 
1.39648 -0.386963 -1.66309 
0 196 254 
1.40039 -0.385742 -1.6582 
0 192 254 
1.4043 -0.384766 -1.65332 
0 188 254 
1.40723 -0.383301 -1.64648 
0 184 254 
1.41016 -0.38208 -1.6416 
0 179 254 
1.41406 -0.380859 -1.63672 
0 176 254 
1.41699 -0.379883 -1.63184 
0 174 254 
1.42188 -0.37915 -1.62891 
0 172 254 
1.42773 -0.378662 -1.62695 
0 173 254 
1.43359 -0.37793 -1.62402 
0 163 254 
1.43359 -0.375977 -1.61621 
0 163 254 
1.4375 -0.375 -1.61133 
0 161 254 
1.4375 -0.373047 -1.60254 
0 154 254 
1.44238 -0.372314 -1.59961 
0 152 254 
1.44824 -0.371826 -1.59766 
0 150 254 
1.4541 -0.371338 -1.5957 
0 147 254 
1.45996 -0.367188 -1.57812 
0 123 254 
1.4707 -0.368164 -1.58203 
0 128 254 
1.47656 -0.367676 -1.58008 
0 125 254 
1.48047 -0.366699 -1.5752 
0 119 254 
1.48242 -0.365479 -1.57031 
0 116 254 
1.4873 -0.364746 -1.56738 
0 114 254 
1.49219 -0.364014 -1.56445 
0 112 254 
1.49512 -0.363281 -1.56055 
0 109 254 
1.5 -0.362549 -1.55762 
0 106 254 
1.50488 -0.361816 -1.55469 
0 104 254 
1.50977 -0.361328 -1.55273 
0 99 254 
1.51465 -0.360596 -1.5498 
0 96 254 
1.51953 -0.360107 -1.54785 
0 95 254 
1.52637 -0.359863 -1.54688 
0 93 254 
1.53125 -0.359375 -1.54492 
0 92 254 
1.53906 -0.359375 -1.54492 
0 92 254 
-1.90918 -0.475586 -2.00195 
0 249 254 
-1.90039 -0.47583 -2.00391 
0 249 254 
-1.8916 -0.476074 -2.00391 
0 249 254 
-1.88477 -0.476807 -2.00781 
0 249 254 
-1.88086 -0.478027 -2.01367 
0 250 254 
-1.87695 -0.479492 -2.01953 
0 250 254 
-1.87402 -0.481445 -2.02734 
0 251 254 
-1.87305 -0.483643 -2.03516 
0 252 254 
-1.87305 -0.48584 -2.04688 
0 253 254 
-1.87207 -0.488281 -2.05664 
0 254 254 
-1.87109 -0.490723 -2.06641 
1 254 253 
-1.87109 -0.493164 -2.07617 
3 254 252 
-1.87012 -0.495361 -2.08594 
5 254 249 
-1.86914 -0.497803 -2.0957 
7 254 247 
-1.86816 -0.5 -2.10547 
11 254 243 
-1.86816 -0.50293 -2.11719 
19 254 235 
-1.86719 -0.505371 -2.12891 
30 254 224 
-1.86719 -0.507812 -2.13867 
50 254 204 
-1.86719 -0.510742 -2.15234 
50 254 204 
-1.86816 -0.51416 -2.16406 
59 254 195 
-1.87012 -0.51709 -2.17773 
70 254 184 
-1.87207 -0.520508 -2.19336 
80 254 174 
-1.87402 -0.524414 -2.20703 
88 254 166 
-1.875 -0.527344 -2.2207 
96 254 159 
-1.875 -0.530273 -2.23438 
103 254 151 
-1.875 -0.533203 -2.24609 
108 254 146 
-1.87207 -0.535645 -2.25586 
114 254 140 
-1.87012 -0.538086 -2.26562 
119 254 135 
-1.86621 -0.540039 -2.27344 
124 254 130 
-1.86133 -0.541992 -2.28125 
131 254 123 
-1.85742 -0.543945 -2.28906 
138 254 116 
-1.84961 -0.544922 -2.29492 
144 254 111 
-1.8418 -0.545898 -2.29883 
148 254 106 
-1.84961 -0.55127 -2.32031 
185 254 69 
-1.81152 -0.542969 -2.28711 
168 254 86 
-1.79785 -0.541992 -2.2832 
128 254 126 
-1.7832 -0.541016 -2.27734 
155 254 99 
-1.76562 -0.538574 -2.26953 
145 254 109 
-1.74902 -0.537109 -2.26172 
129 254 125 
-1.73145 -0.535156 -2.25195 
110 254 144 
-1.72461 -0.536133 -2.25781 
108 254 146 
-1.70508 -0.533691 -2.24609 
103 254 151 
-1.6748 -0.526855 -2.21875 
93 254 161 
-1.65723 -0.524902 -2.21094 
88 254 166 
-1.6416 -0.523438 -2.20312 
85 254 169 
-1.62793 -0.522461 -2.19922 
83 254 171 
-1.61621 -0.521973 -2.19727 
82 254 172 
-1.60547 -0.521973 -2.19727 
82 254 172 
-1.59668 -0.522461 -2.19922 
83 254 171 
-1.58887 -0.523438 -2.20312 
85 254 169 
-1.58203 -0.524414 -2.20703 
87 254 167 
-1.5752 -0.525391 -2.21289 
90 254 164 
-1.56836 -0.526855 -2.21875 
93 254 160 
-1.5625 -0.52832 -2.22461 
96 254 159 
-1.55469 -0.529297 -2.22852 
98 254 156 
-1.54688 -0.530273 -2.23242 
101 254 153 
-1.53809 -0.530762 -2.23438 
102 254 152 
-1.52734 -0.530762 -2.23633 
102 254 152 
-1.51465 -0.530273 -2.23242 
100 254 154 
-1.50195 -0.529297 -2.22852 
98 254 157 
-1.48633 -0.527344 -2.22266 
94 254 160 
-1.46973 -0.525391 -2.21289 
89 254 165 
-1.45215 -0.522949 -2.20117 
83 254 171 
-1.43457 -0.52002 -2.19141 
76 254 178 
-1.41602 -0.51709 -2.17773 
68 254 186 
-1.39941 -0.514648 -2.16797 
59 254 195 
-1.38281 -0.512207 -2.1582 
54 254 200 
-1.36914 -0.51123 -2.15234 
49 254 205 
-1.35645 -0.510254 -2.14844 
45 254 209 
-1.34668 -0.510254 -2.15039 
44 254 210 
-1.33789 -0.510742 -2.15234 
46 254 208 
-1.3291 -0.511719 -2.1543 
46 254 208 
-1.32129 -0.512695 -2.1582 
49 254 205 
-1.31348 -0.513672 -2.16211 
51 254 203 
-1.30664 -0.514648 -2.16797 
53 254 201 
-1.29785 -0.515625 -2.16992 
56 254 198 
-1.29004 -0.516113 -2.17383 
58 254 196 
-1.28125 -0.516602 -2.17578 
59 254 195 
-1.27246 -0.51709 -2.17773 
62 254 191 
-1.2627 -0.517578 -2.17969 
64 254 190 
-1.25391 -0.518066 -2.18164 
67 254 187 
-1.24609 -0.519043 -2.1875 
71 254 183 
-1.23828 -0.520508 -2.19141 
74 254 180 
-1.23242 -0.522461 -2.19922 
80 254 174 
-1.22852 -0.524902 -2.21094 
86 254 168 
-1.22559 -0.52832 -2.22461 
94 254 160 
-1.22266 -0.531738 -2.24023 
103 254 151 
-1.21973 -0.535156 -2.25391 
110 254 144 
-1.2168 -0.538086 -2.26758 
118 254 136 
-1.21289 -0.541504 -2.2793 
127 254 127 
-1.20801 -0.544434 -2.29102 
138 254 116 
-1.2041 -0.547363 -2.30469 
148 254 106 
-1.19922 -0.550293 -2.31641 
161 254 93 
-1.19531 -0.553223 -2.33008 
172 254 82 
-1.19141 -0.556641 -2.3457 
186 254 68 
-1.18848 -0.560547 -2.35938 
199 254 55 
-1.18652 -0.564941 -2.37891 
214 254 40 
-1.18652 -0.570312 -2.40234 
232 254 22 
-1.18652 -0.576172 -2.42578 
254 249 0 
-1.1875 -0.582031 -2.45117 
254 228 0 
-1.1875 -0.587891 -2.47656 
254 211 0 
-1.1875 -0.59375 -2.5 
254 196 0 
-1.18555 -0.598633 -2.52148 
254 182 0 
-1.18262 -0.603027 -2.53906 
254 170 0 
-1.17676 -0.606445 -2.55273 
254 161 0 
-1.1709 -0.609375 -2.56641 
254 151 0 
-1.16309 -0.611816 -2.57617 
254 145 0 
-1.15625 -0.614746 -2.58789 
254 137 0 
-1.14844 -0.617188 -2.59961 
254 128 0 
-1.14453 -0.621582 -2.61719 
254 114 0 
-1.13672 -0.624023 -2.62891 
254 105 0 
-1.14941 -0.638184 -2.6875 
254 78 0 
-1.18555 -0.696777 -2.93359 
250 0 0 
-1.17969 -0.701172 -2.95312 
245 0 0 
-1.17676 -0.70752 -2.98047 
240 0 0 
-1.16992 -0.712402 -3 
235 0 0 
-1.16406 -0.717773 -3.02148 
231 0 0 
-1.1582 -0.722656 -3.04297 
227 0 0 
-1.15234 -0.728516 -3.06836 
222 0 0 
-1.16309 -0.744141 -3.13477 
199 0 0 
-1.30566 -0.880859 -3.70898 
125 0 0 
-1.32324 -0.904785 -3.81055 
104 0 0 
-1.31641 -0.912598 -3.84375 
97 0 0 
-1.30078 -0.914062 -3.84961 
94 0 0 
-1.27734 -0.910645 -3.83594 
96 0 0 
-1.25977 -0.910645 -3.83594 
0 0 0 
-0.442871 -0.609863 -2.56836 
254 163 0 
-0.431152 -0.61084 -2.57227 
254 162 0 
-0.419678 -0.611816 -2.57617 
254 160 0 
-0.408203 -0.612793 -2.58203 
254 159 0 
-0.396973 -0.614258 -2.58789 
254 158 0 
-0.385986 -0.616699 -2.5957 
254 140 0 
-0.373779 -0.616699 -2.59766 
254 139 0 
-0.363037 -0.619141 -2.60742 
254 132 0 
-0.351074 -0.620117 -2.61133 
254 128 0 
-0.339111 -0.620605 -2.61328 
254 127 0 
-0.326904 -0.620605 -2.61328 
254 127 0 
-0.317871 -0.627441 -2.64258 
254 109 0 
-0.304688 -0.625977 -2.63672 
254 109 0 
-0.291016 -0.623535 -2.62695 
254 117 0 
-0.279297 -0.625488 -2.63281 
254 111 0 
-0.26709 -0.625977 -2.63477 
254 109 0 
-0.254395 -0.625 -2.63281 
254 112 0 
-0.0825806 -0.64502 -2.71484 
254 70 0 
-0.0692749 -0.640625 -2.69922 
254 75 0 
-0.0564575 -0.640137 -2.69531 
254 77 0 
-0.0436401 -0.63916 -2.69141 
254 81 0 
-0.030838 -0.637695 -2.68555 
254 83 0 
-0.0180664 -0.635254 -2.67578 
254 87 0 
-0.00539017 -0.633301 -2.66797 
254 91 0 
0.00720596 -0.631348 -2.66016 
254 93 0 
0.0198364 -0.633301 -2.66602 
254 92 0 
1.27344 -0.946289 -3.98438 
0 0 0 
1.29004 -0.944824 -3.97852 
59 0 0 
1.30371 -0.94043 -3.96094 
64 0 0 
1.32031 -0.939453 -3.95508 
69 0 0 
1.34668 -0.931641 -3.92383 
80 0 0 
1.36133 -0.928711 -3.91016 
85 0 0 
1.3584 -0.914062 -3.84961 
94 0 0 
1.36035 -0.90332 -3.80469 
100 0 0 
1.36133 -0.89209 -3.75781 
108 0 0 
1.36523 -0.883301 -3.7207 
116 0 0 
1.36914 -0.874512 -3.68359 
125 0 0 
1.37402 -0.866699 -3.64844 
137 0 0 
1.37988 -0.859375 -3.62109 
157 0 0 
1.3877 -0.854004 -3.59766 
157 0 0 
1.39844 -0.850098 -3.58008 
162 0 0 
1.41211 -0.848145 -3.57227 
165 0 0 
1.42773 -0.847656 -3.57031 
166 0 0 
1.44629 -0.848633 -3.57422 
165 0 0 
1.4668 -0.850586 -3.58203 
163 0 0 
1.48828 -0.853027 -3.59375 
160 0 0 
1.51074 -0.855957 -3.60547 
157 0 0 
1.53223 -0.858887 -3.61523 
153 0 0 
1.55371 -0.86084 -3.62695 
149 0 0 
1.5752 -0.863281 -3.63477 
147 0 0 
1.59473 -0.864746 -3.64258 
145 0 0 
1.61621 -0.866699 -3.65039 
144 0 0 
1.63672 -0.868652 -3.6582 
141 0 0 
1.6582 -0.870605 -3.66797 
138 0 0 
1.67969 -0.873047 -3.67773 
134 0 0 
1.70215 -0.875977 -3.6875 
130 0 0 
1.72559 -0.878906 -3.70117 
126 0 0 
1.75391 -0.884277 -3.72266 
120 0 0 
1.78613 -0.891602 -3.75391 
114 0 0 
1.81543 -0.897461 -3.7793 
103 0 0 
1.8457 -0.90332 -3.80469 
98 0 0 
1.88574 -0.913574 -3.84766 
90 0 0 
1.90918 -0.916504 -3.85938 
0 0 0 
1.13965 -0.434814 -1.83105 
0 246 254 
1.14355 -0.433105 -1.82324 
0 246 254 
1.14746 -0.431152 -1.81543 
0 245 254 
1.15039 -0.428955 -1.80664 
0 245 254 
1.15234 -0.426758 -1.79785 
0 243 254 
1.15625 -0.425049 -1.79004 
0 242 254 
1.16016 -0.423584 -1.7832 
0 241 254 
1.16602 -0.422363 -1.77832 
0 240 254 
1.17188 -0.421387 -1.77441 
0 239 254 
1.17676 -0.420166 -1.76953 
0 237 254 
1.18066 -0.418701 -1.76367 
0 236 254 
1.18457 -0.416992 -1.75684 
0 234 254 
1.18555 -0.414551 -1.74512 
0 230 254 
1.18359 -0.410889 -1.73047 
0 225 254 
1.18457 -0.408447 -1.7207 
0 221 254 
1.17773 -0.40332 -1.69824 
0 213 254 
1.17773 -0.400635 -1.6875 
0 209 254 
1.17969 -0.398438 -1.67773 
0 204 254 
1.18262 -0.396729 -1.6709 
0 200 254 
1.18555 -0.395264 -1.66504 
0 193 254 
1.19141 -0.394531 -1.66211 
0 191 254 
1.19629 -0.393555 -1.65723 
0 187 254 
1.20215 -0.393066 -1.65527 
0 186 254 
1.20703 -0.39209 -1.65137 
0 184 254 
1.21289 -0.391357 -1.64844 
0 184 254 
1.2207 -0.391357 -1.64844 
0 184 254 
1.22852 -0.391357 -1.64844 
0 184 254 
1.2373 -0.391846 -1.65039 
0 187 254 
1.24902 -0.393066 -1.65527 
0 191 254 
1.25977 -0.393799 -1.6582 
0 194 254 
1.26855 -0.394287 -1.66016 
0 195 254 
1.27734 -0.394287 -1.66113 
0 196 254 
1.28613 -0.394531 -1.66211 
0 196 254 
1.29492 -0.394775 -1.66309 
0 197 254 
1.30273 -0.394775 -1.66309 
0 197 254 
1.30957 -0.394531 -1.66211 
0 196 254 
1.31738 -0.394531 -1.66211 
0 196 254 
1.3252 -0.394531 -1.66211 
0 196 254 
1.33301 -0.394531 -1.66211 
0 196 254 
1.3418 -0.394775 -1.66309 
0 196 254 
1.34961 -0.394775 -1.66309 
0 196 254 
1.35742 -0.394775 -1.66309 
0 196 254 
1.36426 -0.394531 -1.66211 
0 196 254 
1.37207 -0.394287 -1.66113 
0 195 254 
1.37598 -0.393555 -1.65723 
0 192 254 
1.38184 -0.392822 -1.6543 
0 190 254 
1.3877 -0.392334 -1.65234 
0 187 254 
1.3916 -0.391357 -1.64844 
0 184 254 
1.39551 -0.390137 -1.64258 
0 179 254 
1.40039 -0.38916 -1.63867 
0 177 254 
1.40332 -0.387939 -1.63379 
0 174 254 
1.40723 -0.386963 -1.62988 
0 172 254 
1.41211 -0.385986 -1.62598 
0 170 254 
1.41797 -0.385498 -1.62402 
0 168 254 
1.42773 -0.385986 -1.62598 
0 170 254 
1.4248 -0.383545 -1.61523 
0 162 254 
1.43164 -0.383301 -1.61426 
0 162 254 
1.4375 -0.382812 -1.61133 
0 161 254 
1.4375 -0.380615 -1.60254 
0 154 254 
1.44238 -0.379883 -1.59961 
0 152 254 
1.44824 -0.379395 -1.59766 
0 150 254 
1.4541 -0.378906 -1.5957 
0 147 254 
1.46484 -0.375977 -1.58398 
0 0 0 
1.46973 -0.375244 -1.58105 
0 0 0 
1.47266 -0.374023 -1.5752 
0 122 254 
1.47949 -0.374023 -1.57422 
0 118 254 
1.48145 -0.372803 -1.56934 
0 115 254 
1.48535 -0.371826 -1.56543 
0 112 254 
1.49023 -0.371094 -1.5625 
0 110 254 
1.49414 -0.370361 -1.55957 
0 108 254 
1.49902 -0.369629 -1.55664 
0 105 254 
1.50391 -0.368896 -1.55371 
0 103 254 
1.50879 -0.368408 -1.55176 
0 99 254 
1.51367 -0.367676 -1.54883 
0 96 254 
1.51855 -0.367188 -1.54688 
0 95 254 
1.52539 -0.366943 -1.5459 
0 93 254 
1.53125 -0.366699 -1.54492 
0 92 254 
1.53809 -0.366455 -1.54395 
0 92 254 
-1.90625 -0.484375 -2 
0 249 254 
-1.89648 -0.484375 -2 
0 249 254 
-1.88672 -0.484375 -2 
0 249 254 
-1.88086 -0.485107 -2.00195 
0 249 254 
-1.875 -0.486084 -2.00781 
0 249 254 
-1.87207 -0.487793 -2.01367 
0 250 254 
-1.86914 -0.489502 -2.02148 
0 250 254 
-1.86719 -0.491699 -2.0293 
0 251 254 
-1.86719 -0.494141 -2.03906 
0 252 254 
-1.86621 -0.496582 -2.05078 
0 253 254 
-1.86621 -0.499023 -2.06055 
0 254 254 
-1.86523 -0.501465 -2.07031 
2 254 252 
-1.86523 -0.503906 -2.08203 
4 254 250 
-1.86426 -0.506348 -2.0918 
5 254 249 
-1.86328 -0.508789 -2.10156 
9 254 245 
-1.8623 -0.51123 -2.11133 
15 254 239 
-1.8623 -0.51416 -2.12305 
26 254 228 
-1.86035 -0.516602 -2.13281 
45 254 209 
-1.86035 -0.519043 -2.14258 
45 254 209 
-1.86035 -0.521973 -2.15625 
54 254 200 
-1.85938 -0.524902 -2.16602 
62 254 191 
-1.85938 -0.527832 -2.17773 
72 254 182 
-1.85938 -0.530762 -2.19141 
79 254 175 
-1.8584 -0.533203 -2.20117 
86 254 168 
-1.85645 -0.535645 -2.21094 
92 254 162 
-1.85449 -0.538086 -2.22266 
95 254 159 
-1.85059 -0.540039 -2.23047 
99 254 155 
-1.84668 -0.541992 -2.23828 
103 254 151 
-1.84082 -0.543457 -2.24414 
106 254 148 
-1.83594 -0.544922 -2.25 
109 254 145 
-1.83008 -0.546387 -2.25781 
113 254 141 
-1.81934 -0.546387 -2.25586 
115 254 139 
-1.80957 -0.546875 -2.25781 
116 254 138 
-1.79102 -0.544434 -2.24805 
106 254 148 
-1.77734 -0.543457 -2.24414 
105 254 149 
-1.76172 -0.541992 -2.23828 
102 254 152 
-1.74805 -0.541016 -2.23438 
99 254 155 
-1.72852 -0.538086 -2.22266 
93 254 160 
-1.70898 -0.535156 -2.21094 
105 254 149 
-1.69238 -0.533203 -2.20117 
82 254 172 
-1.69434 -0.537109 -2.21875 
85 254 169 
-1.6748 -0.53418 -2.20703 
78 254 176 
-1.63379 -0.524902 -2.16602 
58 254 196 
-1.61719 -0.522461 -2.1582 
53 254 201 
-1.60254 -0.520996 -2.15234 
50 254 204 
-1.58984 -0.520508 -2.14844 
47 254 207 
-1.5791 -0.52002 -2.14648 
46 254 208 
-1.57031 -0.520508 -2.15039 
48 254 206 
-1.56348 -0.521484 -2.1543 
51 254 203 
-1.55762 -0.522949 -2.16016 
55 254 199 
-1.55176 -0.524414 -2.16602 
59 254 195 
-1.54688 -0.526367 -2.17383 
65 254 189 
-1.54199 -0.52832 -2.17969 
71 254 183 
-1.53613 -0.529785 -2.1875 
75 254 179 
-1.53125 -0.53125 -2.19531 
79 254 175 
-1.52344 -0.532715 -2.19922 
83 254 171 
-1.5166 -0.533691 -2.20312 
85 254 169 
-1.50684 -0.53418 -2.20508 
85 254 169 
-1.49707 -0.53418 -2.20508 
85 254 169 
-1.48438 -0.533203 -2.20312 
84 254 170 
-1.4707 -0.532227 -2.19727 
80 254 174 
-1.45508 -0.530762 -2.19141 
75 254 179 
-1.43945 -0.52832 -2.18164 
69 254 185 
-1.42188 -0.525879 -2.17188 
61 254 192 
-1.4043 -0.523438 -2.16016 
54 254 200 
-1.3877 -0.520996 -2.15039 
47 254 207 
-1.37305 -0.519043 -2.14258 
41 254 213 
-1.3584 -0.517578 -2.13672 
36 254 218 
-1.34668 -0.516602 -2.13281 
32 254 222 
-1.33594 -0.516602 -2.13281 
30 254 223 
-1.32715 -0.51709 -2.13477 
31 254 223 
-1.31934 -0.517578 -2.13672 
31 254 223 
-1.31152 -0.518555 -2.14062 
34 254 220 
-1.30371 -0.519531 -2.14453 
37 254 217 
-1.29688 -0.520996 -2.15039 
39 254 215 
-1.28906 -0.521973 -2.1543 
42 254 212 
-1.28027 -0.522461 -2.1582 
45 254 209 
-1.27148 -0.523438 -2.16016 
47 254 207 
-1.2627 -0.523926 -2.16211 
51 254 203 
-1.25391 -0.524414 -2.16602 
53 254 201 
-1.24609 -0.525391 -2.16992 
57 254 197 
-1.23926 -0.526855 -2.17578 
61 254 192 
-1.2334 -0.528809 -2.18359 
67 254 187 
-1.22949 -0.53125 -2.19531 
74 254 180 
-1.22656 -0.534668 -2.20703 
84 254 170 
-1.22559 -0.539062 -2.22656 
94 254 160 
-1.22559 -0.543457 -2.24414 
104 254 150 
-1.22266 -0.546875 -2.25977 
112 254 142 
-1.21973 -0.550293 -2.27344 
121 254 133 
-1.21582 -0.553711 -2.28516 
131 254 123 
-1.21094 -0.556152 -2.29688 
142 254 112 
-1.20605 -0.559082 -2.30859 
152 254 102 
-1.20117 -0.562012 -2.32031 
164 254 90 
-1.19629 -0.564941 -2.33398 
175 254 79 
-1.19336 -0.568359 -2.34766 
188 254 66 
-1.18945 -0.572266 -2.36133 
201 254 53 
-1.18848 -0.577148 -2.38281 
216 254 38 
-1.18848 -0.583008 -2.40625 
236 254 18 
-1.18945 -0.588867 -2.43164 
254 245 0 
-1.19043 -0.595215 -2.45703 
254 224 0 
-1.19043 -0.601074 -2.48242 
254 207 0 
-1.19043 -0.606445 -2.50391 
254 192 0 
-1.1875 -0.611328 -2.52344 
254 180 0 
-1.18359 -0.615234 -2.54102 
254 169 0 
-1.17676 -0.618652 -2.55469 
254 159 0 
-1.1709 -0.621582 -2.56641 
254 151 0 
-1.16309 -0.624023 -2.57617 
254 145 0 
-1.15527 -0.626465 -2.58789 
254 137 0 
-1.14844 -0.629395 -2.59961 
254 128 0 
-1.14453 -0.634277 -2.61914 
254 114 0 
-1.13672 -0.636719 -2.62891 
254 106 0 
-1.19141 -0.705566 -2.91406 
0 0 0 
-1.18652 -0.710938 -2.93555 
250 0 0 
-1.18262 -0.717285 -2.96094 
243 0 0 
-1.1748 -0.721191 -2.97852 
240 0 0 
-1.16797 -0.725586 -2.99609 
236 0 0 
-1.16309 -0.730957 -3.01953 
232 0 0 
-1.15723 -0.736816 -3.04297 
227 0 0 
-1.15332 -0.743652 -3.07031 
222 0 0 
-1.1582 -0.756348 -3.12305 
203 0 0 
-1.17969 -0.779785 -3.2207 
203 0 0 
-1.26172 -0.856445 -3.53516 
172 0 0 
-1.29102 -0.888184 -3.66797 
133 0 0 
-1.32129 -0.921387 -3.80469 
104 0 0 
-1.32227 -0.93457 -3.85938 
95 0 0 
-1.31055 -0.939453 -3.87891 
88 0 0 
-0.441162 -0.620117 -2.56055 
254 166 0 
-0.429688 -0.621094 -2.56445 
254 165 0 
-0.418457 -0.62207 -2.56836 
254 164 0 
-0.407227 -0.623535 -2.57422 
254 162 0 
-0.39624 -0.625488 -2.58203 
254 161 0 
-0.385498 -0.62793 -2.5918 
254 142 0 
-0.373535 -0.628418 -2.59375 
254 141 0 
-0.362793 -0.631348 -2.60547 
254 133 0 
-0.351074 -0.632324 -2.60938 
254 129 0 
-0.339111 -0.632812 -2.61328 
254 127 0 
-0.32666 -0.632812 -2.61133 
254 128 0 
-0.314941 -0.634277 -2.61914 
254 111 0 
-0.304199 -0.637695 -2.63281 
254 111 0 
-0.291504 -0.637207 -2.63086 
254 113 0 
-0.27832 -0.635742 -2.625 
254 118 0 
-0.0825806 -0.657715 -2.71484 
254 70 0 
-0.069397 -0.654785 -2.70312 
254 74 0 
-0.0565491 -0.653809 -2.69922 
254 76 0 
-0.0437012 -0.652344 -2.69531 
254 79 0 
-0.0308685 -0.650879 -2.6875 
254 83 0 
-0.0180817 -0.648438 -2.67773 
254 87 0 
-0.00539017 -0.645996 -2.66797 
254 91 0 
0.00720215 -0.643555 -2.6582 
254 95 0 
0.0196686 -0.640625 -2.64453 
254 102 0 
0.0320435 -0.637695 -2.63281 
254 111 0 
0.044342 -0.635254 -2.62305 
254 117 0 
1.28809 -0.961914 -3.97266 
58 0 0 
1.30762 -0.961914 -3.97266 
59 0 0 
1.32617 -0.961914 -3.97266 
61 0 0 
1.33789 -0.957031 -3.95117 
69 0 0 
1.34863 -0.951172 -3.92773 
74 0 0 
1.35645 -0.944336 -3.89844 
82 0 0 
1.3623 -0.935547 -3.86133 
89 0 0 
1.36816 -0.926758 -3.82617 
96 0 0 
1.37012 -0.916016 -3.7832 
102 0 0 
1.37305 -0.90625 -3.74219 
110 0 0 
1.37598 -0.896484 -3.70117 
120 0 0 
1.37891 -0.887207 -3.66406 
133 0 0 
1.38281 -0.878906 -3.62891 
155 0 0 
1.39062 -0.872559 -3.60352 
155 0 0 
1.40039 -0.868164 -3.58398 
162 0 0 
1.41211 -0.865234 -3.57227 
166 0 0 
1.42773 -0.864746 -3.57031 
166 0 0 
1.44629 -0.865723 -3.57422 
166 0 0 
1.4668 -0.867676 -3.58203 
164 0 0 
1.48926 -0.870605 -3.59375 
160 0 0 
1.51172 -0.873535 -3.60742 
155 0 0 
1.53418 -0.876953 -3.62109 
150 0 0 
1.55566 -0.879395 -3.63086 
147 0 0 
1.57715 -0.881836 -3.64062 
145 0 0 
1.59766 -0.883789 -3.64844 
142 0 0 
1.61816 -0.885254 -3.65625 
140 0 0 
1.63867 -0.887207 -3.66406 
137 0 0 
1.66016 -0.88916 -3.67188 
135 0 0 
1.68164 -0.891113 -3.67969 
131 0 0 
1.7041 -0.894043 -3.69141 
127 0 0 
1.72754 -0.897461 -3.70508 
123 0 0 
1.75391 -0.901855 -3.72266 
119 0 0 
1.78223 -0.907227 -3.74609 
113 0 0 
1.81055 -0.912598 -3.76953 
108 0 0 
1.84082 -0.918945 -3.79297 
100 0 0 
1.875 -0.926758 -3.82617 
95 0 0 
1.9082 -0.934082 -3.85742 
88 0 0 
1.13574 -0.442139 -1.8252 
0 246 254 
1.13965 -0.440186 -1.81738 
0 246 254 
1.14355 -0.438232 -1.80957 
0 244 254 
1.14648 -0.436035 -1.80078 
0 244 254 
1.14844 -0.433838 -1.79199 
0 242 254 
1.15234 -0.432129 -1.78418 
0 241 254 
1.15723 -0.430664 -1.77832 
0 240 254 
1.16211 -0.429199 -1.77246 
0 238 254 
1.16699 -0.427979 -1.76758 
0 237 254 
1.17188 -0.426758 -1.7627 
0 236 254 
1.17578 -0.425293 -1.75684 
0 234 254 
1.17871 -0.42334 -1.74805 
0 231 254 
1.17969 -0.420654 -1.7373 
0 227 254 
1.17969 -0.417725 -1.72559 
0 223 254 
1.17969 -0.414795 -1.71289 
0 218 254 
1.1748 -0.410645 -1.69531 
0 210 254 
1.17578 -0.407959 -1.68457 
0 204 254 
1.17676 -0.405762 -1.6748 
0 199 254 
1.17871 -0.403564 -1.66602 
0 194 254 
1.18164 -0.401855 -1.65918 
0 189 254 
1.18555 -0.400391 -1.65332 
0 184 254 
1.18848 -0.398926 -1.64648 
0 180 254 
1.19238 -0.397705 -1.6416 
0 178 254 
1.19629 -0.39624 -1.63574 
0 174 254 
1.2002 -0.39502 -1.63086 
0 173 254 
1.20605 -0.394531 -1.62891 
0 172 254 
1.21289 -0.394043 -1.62695 
0 171 254 
1.21973 -0.393799 -1.62598 
0 172 254 
1.22852 -0.394287 -1.62793 
0 173 254 
1.2373 -0.394531 -1.62891 
0 174 254 
1.24512 -0.394531 -1.62891 
0 174 254 
1.25293 -0.394775 -1.62988 
0 174 254 
1.26172 -0.39502 -1.63086 
0 175 254 
1.26953 -0.39502 -1.63086 
0 175 254 
1.27832 -0.395264 -1.63184 
0 176 254 
1.28711 -0.395508 -1.63281 
0 176 254 
1.29395 -0.395508 -1.63281 
0 176 254 
1.30371 -0.395996 -1.63477 
0 177 254 
1.31348 -0.396484 -1.63672 
0 179 254 
1.32227 -0.396973 -1.63867 
0 179 254 
1.33203 -0.397461 -1.64062 
0 180 254 
1.34082 -0.397705 -1.6416 
0 181 254 
1.34863 -0.397949 -1.64258 
0 181 254 
1.35645 -0.397949 -1.64258 
0 180 254 
1.36328 -0.397461 -1.64062 
0 179 254 
1.36914 -0.396973 -1.63867 
0 178 254 
1.375 -0.396484 -1.63672 
0 176 254 
1.37988 -0.395752 -1.63379 
0 174 254 
1.38477 -0.394775 -1.62988 
0 171 254 
1.38867 -0.393799 -1.62598 
0 169 254 
1.39355 -0.393066 -1.62305 
0 167 254 
1.39844 -0.39209 -1.61914 
0 165 254 
1.40332 -0.391357 -1.61621 
0 163 254 
1.41113 -0.391357 -1.61621 
0 163 254 
1.41504 -0.390381 -1.61133 
0 161 254 
1.42188 -0.390137 -1.61035 
0 157 254 
1.4248 -0.388916 -1.60547 
0 157 254 
1.42969 -0.388184 -1.60254 
0 154 254 
1.4375 -0.388184 -1.60254 
0 154 254 
1.44238 -0.387451 -1.59961 
0 152 254 
1.47266 -0.381592 -1.5752 
0 117 254 
1.47754 -0.380859 -1.57227 
0 116 254 
1.48145 -0.380127 -1.56934 
0 115 254 
1.4834 -0.378662 -1.56348 
0 111 254 
1.48926 -0.378174 -1.56152 
0 109 254 
1.49316 -0.377441 -1.55859 
0 106 254 
1.49805 -0.376709 -1.55566 
0 104 254 
1.50293 -0.375977 -1.55273 
0 101 254 
1.50781 -0.375488 -1.55078 
0 98 254 
1.5127 -0.374756 -1.54785 
0 96 254 
1.51855 -0.374512 -1.54688 
0 95 254 
1.52441 -0.374023 -1.54492 
0 94 254 
1.53027 -0.373779 -1.54395 
0 93 254 
1.53809 -0.373779 -1.54395 
0 93 254 
-1.91309 -0.493164 -1.99707 
0 248 254 
-1.90332 -0.493164 -1.99707 
0 248 254 
-1.89258 -0.49292 -1.99609 
0 248 254 
-1.88379 -0.49292 -1.99609 
0 248 254 
-1.87598 -0.493408 -1.99805 
0 249 254 
-1.87012 -0.494385 -2.00195 
0 249 254 
-1.86523 -0.495605 -2.00781 
0 249 254 
-1.86328 -0.497559 -2.01562 
0 250 254 
-1.86133 -0.499512 -2.02344 
0 251 254 
-1.86035 -0.501953 -2.0332 
0 251 254 
-1.86035 -0.504395 -2.04297 
0 252 254 
-1.85938 -0.506836 -2.05273 
0 253 254 
-1.85938 -0.509766 -2.06445 
1 254 253 
-1.85938 -0.512207 -2.07422 
3 254 252 
-1.8584 -0.514648 -2.08398 
4 254 250 
-1.85742 -0.51709 -2.09375 
7 254 247 
-1.85645 -0.519531 -2.10352 
10 254 244 
-1.85547 -0.521973 -2.11523 
19 254 235 
-1.85352 -0.524414 -2.125 
38 254 216 
-1.85254 -0.526855 -2.13477 
38 254 216 
-1.85059 -0.529297 -2.14453 
46 254 208 
-1.84863 -0.531738 -2.1543 
54 254 200 
-1.84668 -0.53418 -2.16406 
61 254 192 
-1.84473 -0.536621 -2.17188 
68 254 186 
-1.8418 -0.538574 -2.18164 
73 254 181 
-1.83789 -0.540527 -2.18945 
78 254 176 
-1.83398 -0.54248 -2.19727 
83 254 171 
-1.8291 -0.543945 -2.20312 
85 254 169 
-1.82324 -0.54541 -2.20898 
88 254 166 
-1.81641 -0.546387 -2.21289 
90 254 164 
-1.80859 -0.547363 -2.2168 
92 254 162 
-1.7998 -0.547852 -2.21875 
93 254 160 
-1.78809 -0.547363 -2.2168 
94 254 160 
-1.77637 -0.546875 -2.21484 
93 254 160 
-1.75879 -0.544922 -2.20703 
85 254 169 
-1.74219 -0.542969 -2.19922 
82 254 172 
-1.72461 -0.541016 -2.19141 
75 254 179 
-1.71387 -0.540527 -2.18945 
74 254 180 
-1.69141 -0.537109 -2.17383 
64 254 190 
-1.6709 -0.533691 -2.16211 
55 254 199 
-1.65332 -0.53125 -2.15234 
42 254 212 
-1.63672 -0.528809 -2.14258 
36 254 218 
-1.61914 -0.526855 -2.13281 
29 254 225 
-1.59375 -0.521973 -2.11328 
16 254 238 
-1.58008 -0.520508 -2.10742 
12 254 242 
-1.56836 -0.52002 -2.10547 
10 254 244 
-1.55762 -0.519531 -2.10352 
10 254 244 
-1.54785 -0.52002 -2.10547 
11 254 243 
-1.54102 -0.520996 -2.10938 
14 254 240 
-1.53516 -0.522461 -2.11523 
18 254 236 
-1.53027 -0.523926 -2.12305 
26 254 228 
-1.52637 -0.525879 -2.13086 
32 254 222 
-1.52344 -0.52832 -2.14062 
41 254 213 
-1.51953 -0.530762 -2.15039 
48 254 206 
-1.51465 -0.532715 -2.1582 
54 254 200 
-1.51074 -0.534668 -2.16602 
59 254 195 
-1.50488 -0.536621 -2.17188 
64 254 190 
-1.49805 -0.537598 -2.17773 
67 254 187 
-1.49023 -0.538574 -2.18164 
69 254 185 
-1.48145 -0.539062 -2.18164 
69 254 185 
-1.46973 -0.538574 -2.18164 
69 254 185 
-1.45703 -0.537598 -2.17773 
66 254 188 
-1.44336 -0.536621 -2.17188 
61 254 192 
-1.42773 -0.534668 -2.16406 
56 254 198 
-1.41211 -0.532227 -2.15625 
51 254 203 
-1.39551 -0.529785 -2.14648 
43 254 211 
-1.37988 -0.527832 -2.13672 
37 254 217 
-1.36426 -0.525879 -2.12891 
30 254 224 
-1.35059 -0.524414 -2.125 
25 254 229 
-1.33887 -0.523438 -2.12109 
21 254 233 
-1.32812 -0.523438 -2.12109 
19 254 235 
