ply
format ascii 1.0
comment pointcloud saved from Realsense Viewer
element vertex 1692
property float32 x
property float32 y
property float32 z
end_header
1.1416 -0.263184 -3.91992 
1.16211 -0.263672 -3.92578 
1.43555 -0.266113 -3.96289 
1.55371 -0.263916 -3.92969 
1.56445 -0.262695 -3.91211 
1.5791 -0.261719 -3.90039 
1.59277 -0.260986 -3.88867 
1.61035 -0.260986 -3.88672 
1.64062 -0.262939 -3.91602 
1.52246 -0.116455 -1.73438 
1.52734 -0.116211 -1.73047 
1.53223 -0.115906 -1.72656 
1.53516 -0.115601 -1.72168 
1.53809 -0.115173 -1.71484 
1.54102 -0.114746 -1.70898 
1.54297 -0.114319 -1.70215 
1.54492 -0.113892 -1.69629 
1.54688 -0.113403 -1.68945 
1.54883 -0.113037 -1.68262 
1.55176 -0.11261 -1.67676 
1.55469 -0.112305 -1.67188 
1.55762 -0.111877 -1.66602 
1.56055 -0.111511 -1.66113 
1.56445 -0.111267 -1.65723 
1.56836 -0.111023 -1.65332 
1.57227 -0.110718 -1.64941 
1.57812 -0.110596 -1.64648 
1.58398 -0.110474 -1.64453 
1.58984 -0.110352 -1.64258 
1.59766 -0.110352 -1.64258 
1.60449 -0.110229 -1.6416 
1.61133 -0.110168 -1.64062 
1.61914 -0.110168 -1.64062 
1.62695 -0.110168 -1.64062 
1.63477 -0.110168 -1.64062 
-2.48047 -0.192017 -2.66992 
-2.45898 -0.191284 -2.66016 
-2.43555 -0.19043 -2.64844 
-2.41211 -0.189453 -2.63477 
-2.38672 -0.188477 -2.62109 
-2.36133 -0.1875 -2.60742 
-2.33789 -0.186523 -2.5957 
-2.3125 -0.185425 -2.58008 
-2.28711 -0.184326 -2.56445 
-2.20508 -0.178833 -2.48828 
-2.15625 -0.175781 -2.44531 
-2.10547 -0.172607 -2.40234 
-2.08789 -0.178711 -2.48633 
-2.08203 -0.179199 -2.49414 
-2.05859 -0.178345 -2.48047 
-2.14258 -0.186646 -2.5957 
-2.13086 -0.186646 -2.59766 
-2.125 -0.187256 -2.60547 
-2.12695 -0.188477 -2.62305 
-2.12891 -0.189819 -2.64062 
-2.14648 -0.192505 -2.67773 
-2.19336 -0.197998 -2.75391 
-2.20117 -0.199829 -2.7793 
-2.21094 -0.201904 -2.80859 
-2.2168 -0.203613 -2.83203 
-2.21875 -0.205078 -2.85156 
-2.22266 -0.206665 -2.875 
-2.21875 -0.20752 -2.88672 
-2.20898 -0.207886 -2.89258 
-2.19141 -0.207642 -2.88867 
-2.16992 -0.206909 -2.87891 
-2.14453 -0.205688 -2.86133 
-2.11914 -0.204468 -2.8457 
-2.0918 -0.203247 -2.82812 
-2.05664 -0.20105 -2.79688 
-2.00781 -0.197632 -2.74805 
-2.10352 -0.272217 -3.78711 
-2.07812 -0.27124 -3.77539 
-2.03125 -0.267334 -3.71875 
-2.00977 -0.266846 -3.71289 
-1.99219 -0.266846 -3.71289 
-1.97754 -0.267334 -3.71875 
-1.9668 -0.268066 -3.73047 
-1.95801 -0.269287 -3.74805 
-1.95117 -0.270752 -3.76953 
-1.94434 -0.272461 -3.79102 
-1.9375 -0.273926 -3.8125 
-1.93066 -0.275635 -3.83398 
-1.92188 -0.276855 -3.85352 
-1.91016 -0.277832 -3.86719 
-1.89746 -0.278809 -3.87891 
-1.88281 -0.279297 -3.88477 
-1.86621 -0.279541 -3.89062 
-1.85059 -0.280029 -3.89453 
-1.83594 -0.280518 -3.90234 
-1.82031 -0.281006 -3.91016 
-1.80762 -0.281738 -3.92188 
-1.79297 -0.282471 -3.93164 
-1.7793 -0.283203 -3.93945 
-1.75977 -0.283203 -3.93945 
-1.59863 -0.287598 -4 
0.842773 -0.281006 -3.91016 
0.859375 -0.280273 -3.90039 
0.874512 -0.279297 -3.88477 
0.888672 -0.278076 -3.86719 
0.903809 -0.276855 -3.85352 
0.919922 -0.276367 -3.8457 
0.937012 -0.275879 -3.83984 
0.953125 -0.275391 -3.83203 
0.970703 -0.275146 -3.83008 
0.98877 -0.275146 -3.83008 
0.998047 -0.272949 -3.79688 
1.01465 -0.272705 -3.79297 
1.03809 -0.273926 -3.8125 
1.06152 -0.275391 -3.83008 
1.0918 -0.278564 -3.875 
1.11621 -0.280029 -3.89648 
1.13965 -0.28125 -3.91406 
1.16406 -0.282715 -3.93359 
1.54395 -0.280518 -3.9043 
1.56836 -0.281738 -3.92188 
1.58496 -0.281494 -3.91602 
1.60059 -0.281006 -3.91016 
1.61914 -0.280762 -3.9082 
1.64062 -0.281494 -3.91602 
1.51562 -0.124817 -1.73633 
1.52051 -0.124512 -1.73242 
1.52441 -0.124146 -1.72754 
1.52832 -0.123779 -1.72266 
1.53223 -0.123413 -1.7168 
1.53418 -0.122986 -1.71094 
1.53613 -0.122498 -1.7041 
1.53809 -0.122009 -1.69727 
1.54004 -0.12146 -1.69043 
1.54199 -0.121033 -1.68457 
1.54492 -0.120605 -1.67773 
1.54688 -0.120178 -1.67188 
1.5498 -0.119812 -1.66699 
1.55371 -0.119446 -1.66211 
1.55664 -0.11908 -1.65723 
1.56055 -0.118835 -1.65332 
1.56445 -0.11853 -1.64941 
1.56934 -0.118286 -1.64551 
1.5752 -0.118164 -1.64355 
1.58105 -0.118042 -1.6416 
1.58789 -0.117981 -1.64062 
1.5957 -0.117981 -1.64062 
1.60352 -0.117981 -1.64062 
1.61035 -0.117859 -1.63965 
1.61816 -0.117859 -1.63965 
1.62598 -0.117859 -1.63965 
1.63379 -0.117859 -1.63965 
-2.51562 -0.206421 -2.69531 
-2.47266 -0.203857 -2.66211 
-2.45117 -0.203125 -2.65234 
-2.42773 -0.202271 -2.63867 
-2.40234 -0.201172 -2.625 
-2.37695 -0.200073 -2.61133 
-2.35156 -0.198853 -2.5957 
-2.32617 -0.197876 -2.58398 
-2.30273 -0.196899 -2.57031 
-2.21875 -0.190674 -2.48828 
-2.16797 -0.187256 -2.44531 
-2.11719 -0.18396 -2.40039 
-2.08398 -0.182007 -2.375 
-2.03906 -0.178955 -2.33594 
-2.07617 -0.189575 -2.47461 
-2.07031 -0.190063 -2.48047 
-2.05859 -0.190186 -2.48242 
-2.14258 -0.198853 -2.5957 
-2.12695 -0.19873 -2.59375 
-2.12109 -0.199219 -2.59961 
-2.12109 -0.200317 -2.61523 
-2.12305 -0.20166 -2.63281 
-2.13867 -0.204346 -2.66797 
-2.18164 -0.209839 -2.73828 
-2.19141 -0.211914 -2.76562 
-2.20117 -0.214111 -2.79492 
-2.20898 -0.216187 -2.82227 
-2.21484 -0.21814 -2.84766 
-2.21875 -0.219849 -2.86914 
-2.2207 -0.221558 -2.89062 
-2.21484 -0.22229 -2.90039 
-2.20312 -0.222412 -2.90234 
-2.18555 -0.221924 -2.89648 
-2.16211 -0.221191 -2.88672 
-2.13867 -0.220093 -2.87305 
-2.11719 -0.219238 -2.86133 
-2.08203 -0.217041 -2.83398 
-2.0957 -0.289062 -3.77344 
-2.07227 -0.28833 -3.76562 
-2.01953 -0.283203 -3.69727 
-2.00195 -0.283203 -3.69922 
-1.98633 -0.283447 -3.70117 
-1.97168 -0.283936 -3.70703 
-1.96094 -0.284912 -3.71875 
-1.95215 -0.286133 -3.73633 
-1.94434 -0.287598 -3.75586 
-1.9375 -0.289307 -3.77734 
-1.92969 -0.291016 -3.79883 
-1.9209 -0.292236 -3.81641 
-1.91211 -0.293701 -3.83203 
-1.89941 -0.294434 -3.8457 
-1.88574 -0.29541 -3.85547 
-1.87109 -0.295898 -3.86133 
-1.85547 -0.296143 -3.86719 
-1.83984 -0.296631 -3.87305 
-1.8252 -0.297363 -3.88086 
-1.81152 -0.298096 -3.89062 
-1.79883 -0.299072 -3.90234 
-1.78613 -0.299805 -3.91602 
-1.77246 -0.300781 -3.92578 
-1.75684 -0.30127 -3.93359 
-1.74023 -0.301514 -3.9375 
-1.59961 -0.306641 -4.00391 
0.86084 -0.299316 -3.9082 
0.875977 -0.298096 -3.89258 
0.891113 -0.297119 -3.87891 
0.906738 -0.296143 -3.86719 
0.92334 -0.295654 -3.85938 
0.94043 -0.29541 -3.85547 
0.95166 -0.293213 -3.82617 
0.967773 -0.29248 -3.81836 
0.984863 -0.292236 -3.81445 
1.00293 -0.292236 -3.81445 
1.01562 -0.290771 -3.79688 
1.03809 -0.292236 -3.81445 
1.06348 -0.293945 -3.83984 
1.08594 -0.295166 -3.85352 
1.11035 -0.296875 -3.875 
1.54199 -0.298828 -3.90039 
1.57129 -0.301025 -3.92773 
1.58887 -0.300537 -3.92383 
1.60547 -0.300293 -3.92188 
1.62402 -0.300293 -3.91992 
1.63574 -0.299072 -3.90234 
1.51465 -0.132812 -1.73438 
1.51855 -0.132568 -1.73047 
1.52246 -0.132202 -1.72559 
1.52539 -0.131714 -1.71875 
1.52832 -0.131226 -1.71289 
1.53027 -0.130737 -1.70605 
1.53223 -0.130127 -1.69922 
1.5332 -0.129639 -1.69238 
1.53613 -0.12915 -1.68652 
1.53711 -0.128662 -1.67871 
1.54004 -0.128174 -1.67285 
1.54199 -0.127686 -1.66699 
1.5459 -0.127319 -1.66211 
1.54883 -0.126953 -1.65723 
1.55273 -0.126587 -1.65332 
1.55664 -0.126343 -1.64941 
1.56152 -0.126099 -1.64551 
1.56641 -0.125854 -1.64258 
1.57227 -0.125732 -1.64062 
1.5791 -0.12561 -1.63965 
1.58691 -0.12561 -1.63965 
1.59375 -0.125488 -1.63867 
1.60156 -0.125488 -1.63867 
1.60938 -0.125488 -1.63867 
1.61816 -0.12561 -1.63965 
1.62598 -0.12561 -1.63965 
1.63379 -0.12561 -1.63965 
-2.49023 -0.216797 -2.66602 
-2.46094 -0.215454 -2.64844 
-2.4375 -0.2146 -2.63672 
-2.41406 -0.213501 -2.625 
-2.38867 -0.212402 -2.61133 
-2.36328 -0.21106 -2.5957 
-2.33594 -0.209839 -2.58008 
-2.31055 -0.208618 -2.56445 
-2.27344 -0.206421 -2.53711 
-2.19336 -0.200073 -2.45898 
-2.13477 -0.195923 -2.4082 
-2.09375 -0.193115 -2.37305 
-2.05469 -0.190552 -2.3418 
-2.01758 -0.18811 -2.3125 
-1.99707 -0.187134 -2.30078 
-2.07617 -0.200195 -2.46094 
-2.07617 -0.201294 -2.47461 
-2.07227 -0.201904 -2.48242 
-2.0625 -0.202148 -2.48438 
-2.14258 -0.211182 -2.5957 
-2.12109 -0.210327 -2.58594 
-2.11523 -0.210938 -2.59375 
-2.11328 -0.212036 -2.60742 
-2.11523 -0.213501 -2.625 
-2.12891 -0.216064 -2.65625 
-2.16992 -0.221558 -2.72461 
-2.17969 -0.223877 -2.75195 
-2.19336 -0.226685 -2.78516 
-2.20312 -0.229004 -2.81445 
-2.21289 -0.231323 -2.84375 
-2.22266 -0.233765 -2.875 
-2.22656 -0.235718 -2.89844 
-2.22266 -0.236816 -2.91211 
-2.21289 -0.237183 -2.91602 
-2.19727 -0.237061 -2.91406 
-2.17969 -0.23645 -2.9082 
-2.1582 -0.235718 -2.89648 
-2.13672 -0.234985 -2.88867 
-2.10352 -0.232788 -2.86133 
-2.11133 -0.303955 -3.73828 
-2.10352 -0.30542 -3.75586 
-2.08594 -0.30542 -3.75391 
-2.06445 -0.304688 -3.74805 
-2.00977 -0.299316 -3.67969 
-1.99219 -0.299316 -3.67969 
-1.97656 -0.299561 -3.68359 
-1.96289 -0.300293 -3.69141 
-1.95215 -0.30127 -3.70312 
-1.94336 -0.30249 -3.7207 
-1.93555 -0.303955 -3.73828 
-1.92773 -0.305664 -3.75781 
-1.91895 -0.307129 -3.77734 
-1.91016 -0.308594 -3.79492 
-1.90039 -0.309814 -3.81055 
-1.8877 -0.310791 -3.82031 
-1.87402 -0.311523 -3.83008 
-1.8584 -0.312012 -3.83594 
-1.84375 -0.3125 -3.8418 
-1.8291 -0.312988 -3.84961 
-1.81445 -0.313721 -3.85742 
-1.80078 -0.314697 -3.86719 
-1.78906 -0.315674 -3.88086 
-1.77637 -0.31665 -3.89453 
-1.76367 -0.317627 -3.90625 
-1.74902 -0.318359 -3.91602 
-1.7334 -0.318848 -3.92188 
0.606934 -0.320312 -3.9375 
0.626465 -0.320801 -3.94336 
1.06738 -0.313477 -3.85352 
1.54492 -0.317871 -3.9082 
1.57324 -0.319824 -3.93164 
1.5918 -0.319824 -3.93164 
1.60938 -0.31958 -3.92969 
1.62695 -0.31958 -3.92773 
1.63867 -0.318115 -3.91016 
1.66016 -0.318604 -3.91797 
1.51367 -0.140991 -1.7334 
1.5166 -0.140503 -1.72754 
1.52051 -0.140015 -1.72266 
1.52246 -0.139526 -1.71582 
1.52441 -0.139038 -1.70898 
1.52637 -0.138428 -1.70215 
1.52832 -0.137817 -1.69531 
1.53027 -0.137329 -1.68848 
1.53125 -0.136719 -1.68066 
1.53418 -0.13623 -1.6748 
1.53613 -0.135742 -1.66895 
1.53906 -0.135254 -1.66309 
1.54199 -0.134888 -1.6582 
1.54492 -0.134399 -1.65332 
1.54883 -0.134155 -1.64941 
1.55371 -0.133911 -1.64551 
1.55859 -0.133667 -1.64258 
1.56445 -0.133423 -1.64062 
1.57031 -0.133301 -1.63867 
1.57715 -0.133179 -1.6377 
1.58496 -0.133179 -1.6377 
1.59277 -0.133179 -1.6377 
1.60059 -0.133179 -1.6377 
1.60938 -0.133301 -1.63867 
1.61719 -0.133301 -1.63867 
1.625 -0.133301 -1.63867 
1.63379 -0.133423 -1.63965 
-2.51367 -0.230591 -2.67773 
-2.47266 -0.228027 -2.64844 
-2.44336 -0.22644 -2.63086 
-2.41992 -0.225342 -2.61914 
-2.39453 -0.224121 -2.60352 
-2.36914 -0.2229 -2.58984 
-2.3418 -0.221436 -2.57227 
-2.31445 -0.219971 -2.55469 
-2.28711 -0.218506 -2.53711 
-2.25781 -0.216797 -2.51953 
-2.16016 -0.208618 -2.42383 
-2.10938 -0.204834 -2.37891 
-2.06836 -0.201904 -2.3457 
-2.03516 -0.199585 -2.31836 
-2.00195 -0.19751 -2.29492 
-1.98438 -0.196899 -2.28711 
-1.97168 -0.196655 -2.2832 
-2.08984 -0.213135 -2.47656 
-2.07617 -0.213013 -2.47461 
-2.07227 -0.213745 -2.48438 
-2.06445 -0.214111 -2.48828 
-2.05859 -0.214722 -2.49414 
-2.11328 -0.221802 -2.57617 
-2.10742 -0.222412 -2.58398 
-2.10547 -0.223511 -2.59766 
-2.10742 -0.224976 -2.61328 
-2.11914 -0.227661 -2.64453 
-2.16016 -0.233398 -2.71094 
-2.17188 -0.235962 -2.74219 
-2.1875 -0.239258 -2.7793 
-2.19922 -0.241943 -2.81055 
-2.21094 -0.244751 -2.84375 
-2.22656 -0.247803 -2.87891 
-2.23438 -0.250244 -2.9082 
-2.23242 -0.251709 -2.92383 
-2.22461 -0.252197 -2.92969 
-2.20898 -0.252197 -2.92969 
-2.19141 -0.251709 -2.92578 
-2.17188 -0.250977 -2.91797 
-2.1543 -0.250488 -2.91016 
-2.12109 -0.248291 -2.88477 
-2.14062 -0.318115 -3.69727 
-2.13672 -0.320068 -3.71875 
-2.12109 -0.320557 -3.72266 
-2.125 -0.32373 -3.76172 
-2.10547 -0.323486 -3.75977 
-2.03906 -0.316162 -3.67188 
-2.02148 -0.315674 -3.66992 
-2.00195 -0.315674 -3.66797 
-1.98242 -0.315186 -3.66211 
-1.96582 -0.31543 -3.66406 
-1.95312 -0.315918 -3.67188 
-1.94141 -0.316895 -3.68359 
-1.93262 -0.318359 -3.69922 
-1.92383 -0.319824 -3.7168 
-1.91602 -0.321533 -3.73633 
-1.90723 -0.322998 -3.75391 
-1.89844 -0.324463 -3.76953 
-1.8877 -0.325684 -3.78516 
-1.875 -0.32666 -3.79492 
-1.86133 -0.327393 -3.80469 
-1.84668 -0.327881 -3.81055 
-1.83105 -0.328369 -3.81641 
-1.81641 -0.329102 -3.82422 
-1.80273 -0.329834 -3.83203 
-1.78906 -0.330811 -3.84375 
-1.77637 -0.331787 -3.85547 
-1.76367 -0.332764 -3.86719 
-1.75098 -0.33374 -3.87891 
-1.7373 -0.334717 -3.88867 
-1.72266 -0.335449 -3.89648 
-1.70605 -0.335938 -3.90234 
-1.69141 -0.336426 -3.91016 
0.542969 -0.334229 -3.88281 
0.561523 -0.334229 -3.88477 
0.580566 -0.334717 -3.88867 
0.603027 -0.33667 -3.91406 
0.623047 -0.337646 -3.92188 
0.641113 -0.337402 -3.92188 
1.5459 -0.33667 -3.91211 
1.57715 -0.339355 -3.94336 
1.5918 -0.338623 -3.93359 
1.60938 -0.338135 -3.92969 
1.62891 -0.338379 -3.93164 
1.63574 -0.335938 -3.9043 
1.6582 -0.33667 -3.91406 
1.50879 -0.149536 -1.7373 
1.51172 -0.149048 -1.73145 
1.51465 -0.148438 -1.72559 
1.51758 -0.147949 -1.71875 
1.52051 -0.147461 -1.71289 
1.52246 -0.146851 -1.70605 
1.52344 -0.14624 -1.69922 
1.52441 -0.145508 -1.69141 
1.52637 -0.144897 -1.68457 
1.52734 -0.144287 -1.67676 
1.53027 -0.143799 -1.6709 
1.53223 -0.143311 -1.66504 
1.53613 -0.142822 -1.66016 
1.53906 -0.142456 -1.65527 
1.54199 -0.141968 -1.65039 
1.5459 -0.141602 -1.64551 
1.55078 -0.141357 -1.64258 
1.55566 -0.141113 -1.63965 
1.56152 -0.140991 -1.6377 
1.56836 -0.140869 -1.63672 
1.5752 -0.140747 -1.63574 
1.58301 -0.140747 -1.63574 
1.5918 -0.140869 -1.63672 
1.59961 -0.140869 -1.63672 
1.6084 -0.140991 -1.6377 
1.61621 -0.140991 -1.6377 
1.625 -0.140991 -1.63867 
1.63281 -0.140991 -1.63867 
-2.80664 -0.264893 -2.91797 
-2.7207 -0.258057 -2.8418 
-2.66602 -0.253906 -2.79688 
-2.61328 -0.250244 -2.75586 
-2.53711 -0.244263 -2.68945 
-2.49414 -0.241333 -2.6582 
-2.45703 -0.239014 -2.63086 
-2.42383 -0.236938 -2.60938 
-2.39844 -0.235596 -2.59375 
-2.37305 -0.234253 -2.58008 
-2.34375 -0.232666 -2.5625 
-2.31641 -0.231079 -2.54492 
-2.28516 -0.229126 -2.52344 
-2.25195 -0.227051 -2.5 
-2.18555 -0.221436 -2.43945 
-2.12891 -0.217041 -2.38867 
-2.04688 -0.209595 -2.30859 
-2.01172 -0.207153 -2.28125 
-1.98633 -0.205566 -2.26367 
-1.97852 -0.205811 -2.26758 
-1.96484 -0.205566 -2.26367 
-2.09375 -0.22644 -2.49414 
-2.08008 -0.226318 -2.49219 
-2.06836 -0.226318 -2.49219 
-2.0625 -0.227051 -2.5 
-2.10742 -0.233276 -2.56836 
-2.10156 -0.233887 -2.57617 
-2.09961 -0.234985 -2.58789 
-2.09961 -0.23645 -2.60352 
-2.11133 -0.23938 -2.63477 
-2.15039 -0.245117 -2.69922 
-2.16016 -0.247803 -2.72852 
-2.2168 -0.255615 -2.81641 
-2.22656 -0.258301 -2.8457 
-2.23242 -0.260742 -2.87109 
-2.23242 -0.262207 -2.88867 
-2.24219 -0.264893 -2.91797 
-2.24414 -0.266846 -2.93945 
-2.23438 -0.267334 -2.94531 
-2.2207 -0.267334 -2.94531 
-2.20312 -0.26709 -2.94141 
-2.18359 -0.266357 -2.93359 
-2.16602 -0.265869 -2.92773 
-2.13281 -0.263428 -2.90039 
-2.14648 -0.336426 -3.70508 
-2.13867 -0.338135 -3.72266 
-2.12305 -0.338379 -3.72852 
-2.07031 -0.332764 -3.66602 
-2.04688 -0.331787 -3.65625 
-2.02734 -0.331299 -3.65039 
-2.00586 -0.330811 -3.64453 
-1.98633 -0.330322 -3.63867 
-1.96973 -0.330322 -3.63867 
-1.9541 -0.330811 -3.64258 
-1.94141 -0.331299 -3.64844 
-1.92969 -0.33252 -3.66211 
-1.9209 -0.33374 -3.67578 
-1.91211 -0.335449 -3.69336 
-1.90332 -0.336914 -3.71094 
-1.89453 -0.338623 -3.72852 
-1.88574 -0.340088 -3.74609 
-1.875 -0.341309 -3.75977 
-1.86328 -0.342529 -3.77148 
-1.84961 -0.343262 -3.78125 
-1.83496 -0.343994 -3.78711 
-1.82031 -0.344482 -3.79297 
-1.80566 -0.344971 -3.80078 
-1.79102 -0.345703 -3.80664 
-1.77637 -0.346436 -3.81641 
-1.7627 -0.347168 -3.82422 
-1.74902 -0.348145 -3.83398 
-1.73438 -0.348877 -3.84375 
-1.7207 -0.349854 -3.85156 
-1.70703 -0.350586 -3.86133 
-1.69238 -0.351318 -3.87109 
-1.67871 -0.352295 -3.88086 
-1.66211 -0.352783 -3.88672 
-1.65039 -0.354248 -3.90234 
-1.63867 -0.355713 -3.91797 
-1.62598 -0.356934 -3.93164 
-1.6123 -0.358154 -3.94531 
0.505859 -0.352051 -3.87695 
0.521484 -0.350342 -3.85742 
0.540527 -0.35083 -3.86328 
0.558594 -0.35083 -3.86328 
0.578125 -0.351562 -3.87109 
0.599609 -0.353271 -3.89062 
0.620117 -0.354492 -3.9043 
0.639648 -0.35498 -3.91016 
0.65918 -0.355713 -3.91797 
1.54199 -0.354004 -3.90039 
1.57129 -0.356445 -3.92578 
1.5918 -0.356934 -3.93164 
1.60938 -0.356689 -3.92969 
1.62793 -0.356934 -3.92969 
1.63574 -0.354492 -3.90234 
1.6582 -0.355225 -3.91406 
1.50684 -0.158325 -1.74414 
1.50586 -0.157471 -1.73438 
1.50977 -0.156982 -1.72949 
1.5127 -0.156494 -1.72363 
1.51562 -0.155884 -1.7168 
1.51758 -0.155273 -1.70996 
1.51953 -0.154663 -1.70312 
1.52148 -0.154053 -1.69629 
1.52148 -0.15332 -1.68848 
1.52344 -0.152588 -1.68066 
1.52539 -0.151978 -1.67383 
1.52734 -0.151489 -1.66797 
1.53027 -0.150879 -1.66211 
1.5332 -0.150391 -1.65723 
1.53613 -0.150024 -1.65234 
1.53906 -0.149536 -1.64648 
1.54395 -0.149292 -1.64355 
1.54785 -0.148926 -1.63965 
1.55371 -0.148682 -1.6377 
1.55957 -0.14856 -1.63574 
1.56641 -0.148438 -1.63477 
1.57422 -0.148438 -1.63477 
1.58203 -0.148438 -1.63477 
1.58984 -0.148438 -1.63477 
1.59863 -0.14856 -1.63574 
1.60742 -0.14856 -1.63672 
1.61621 -0.148682 -1.6377 
1.625 -0.148804 -1.63867 
1.63281 -0.148804 -1.63867 
-2.83398 -0.279785 -2.92969 
-2.76758 -0.274658 -2.87695 
-2.71875 -0.27124 -2.83984 
-2.66406 -0.26709 -2.79492 
-2.60547 -0.262451 -2.74805 
-2.5293 -0.256104 -2.68164 
-2.48047 -0.252441 -2.64258 
-2.42578 -0.248291 -2.59766 
-2.40039 -0.246948 -2.58398 
-2.37305 -0.245239 -2.56641 
-2.34375 -0.24353 -2.54883 
-2.31641 -0.241821 -2.53125 
-2.2832 -0.239746 -2.50977 
-2.25 -0.237305 -2.48438 
-2.21289 -0.234741 -2.45703 
-2.15039 -0.229248 -2.39844 
-2.08203 -0.223267 -2.33594 
-2.03125 -0.218872 -2.29102 
-1.99902 -0.216553 -2.26562 
-1.97168 -0.214722 -2.24805 
-1.94922 -0.213379 -2.23438 
-1.9541 -0.21521 -2.25195 
-2.08789 -0.238892 -2.5 
-2.07227 -0.238647 -2.49805 
-2.06641 -0.23938 -2.50391 
-2.10352 -0.244995 -2.56445 
-2.0957 -0.245483 -2.56836 
-2.0918 -0.24646 -2.58008 
-2.0918 -0.247925 -2.5957 
-2.09766 -0.25 -2.61914 
-2.14258 -0.256836 -2.68945 
-2.1543 -0.259766 -2.71875 
-2.20508 -0.267578 -2.80078 
-2.21875 -0.270752 -2.83594 
-2.22852 -0.273682 -2.86328 
-2.24219 -0.2771 -2.90039 
-2.25781 -0.280762 -2.93945 
-2.25586 -0.282227 -2.95312 
-2.24609 -0.282715 -2.95898 
-2.23047 -0.282715 -2.95898 
-2.21484 -0.282227 -2.95508 
-2.19531 -0.281494 -2.94727 
-2.17578 -0.281006 -2.94141 
-2.14258 -0.278564 -2.91602 
-2.14258 -0.353516 -3.70117 
-2.10156 -0.349609 -3.66016 
-2.08203 -0.349121 -3.65625 
-2.06055 -0.348633 -3.64844 
-2.03906 -0.347656 -3.64062 
-2.01758 -0.347168 -3.63281 
-1.99805 -0.346436 -3.62695 
-1.97559 -0.345703 -3.61719 
-1.95898 -0.345703 -3.61719 
-1.94238 -0.345703 -3.62109 
-1.92969 -0.346436 -3.62695 
-1.91797 -0.347656 -3.63867 
-1.9082 -0.348877 -3.65234 
-1.89941 -0.350586 -3.66992 
-1.8916 -0.352295 -3.6875 
-1.88281 -0.35376 -3.70508 
-1.87402 -0.355713 -3.72266 
-1.86426 -0.356934 -3.73828 
-1.85254 -0.358154 -3.75 
-1.83984 -0.359131 -3.75977 
-1.8252 -0.359863 -3.76758 
-1.80957 -0.360352 -3.77148 
-1.79395 -0.360596 -3.77539 
-1.77832 -0.361084 -3.78125 
-1.7627 -0.361572 -3.78516 
-1.74707 -0.362061 -3.78906 
-1.73145 -0.362549 -3.79492 
-1.71582 -0.363037 -3.80078 
-1.7002 -0.36377 -3.80664 
-1.68652 -0.364502 -3.81445 
-1.67188 -0.365234 -3.82422 
-1.66016 -0.366699 -3.83789 
-1.64648 -0.367676 -3.84961 
-1.6377 -0.369629 -3.87109 
-1.62598 -0.371338 -3.88867 
-1.61426 -0.373047 -3.9043 
-1.60254 -0.374512 -3.91992 
-1.58887 -0.375488 -3.93164 
-1.57324 -0.376221 -3.9375 
-1.55566 -0.376709 -3.94336 
-1.53613 -0.376221 -3.93945 
0.257324 -0.382812 -4.00781 
0.489014 -0.371582 -3.88867 
0.504395 -0.369385 -3.86523 
0.519043 -0.366699 -3.83984 
0.537109 -0.366943 -3.8418 
0.555664 -0.367188 -3.84375 
0.575195 -0.36792 -3.85156 
0.596191 -0.369629 -3.87109 
0.617188 -0.371338 -3.88672 
0.637695 -0.372314 -3.89844 
0.658203 -0.373535 -3.91016 
1.53711 -0.371338 -3.88672 
1.56738 -0.374268 -3.91797 
1.58691 -0.374512 -3.92188 
1.60449 -0.374268 -3.91797 
1.62402 -0.374512 -3.91992 
1.64355 -0.374756 -3.92383 
1.65625 -0.373291 -3.9082 
1.50391 -0.166382 -1.74121 
1.50586 -0.165649 -1.73438 
1.50879 -0.165039 -1.72852 
1.51172 -0.164551 -1.72266 
1.51367 -0.163818 -1.71484 
1.51465 -0.163086 -1.70703 
1.5166 -0.162354 -1.7002 
1.51855 -0.161743 -1.69336 
1.51953 -0.161011 -1.68555 
1.52051 -0.160278 -1.67773 
1.52246 -0.159668 -1.6709 
1.52441 -0.159058 -1.66504 
1.52734 -0.158447 -1.65918 
1.53027 -0.157959 -1.6543 
1.5332 -0.157471 -1.64941 
1.53711 -0.157104 -1.64453 
1.54199 -0.15686 -1.6416 
1.54688 -0.156616 -1.63867 
1.55176 -0.15625 -1.63574 
1.55762 -0.156128 -1.63379 
1.56543 -0.156128 -1.63379 
1.57227 -0.156006 -1.63281 
1.58105 -0.156128 -1.63379 
1.58887 -0.156128 -1.63379 
1.59766 -0.156128 -1.63477 
1.60645 -0.15625 -1.63574 
1.61523 -0.156372 -1.63672 
1.62402 -0.156494 -1.6377 
1.63281 -0.156616 -1.63867 
-2.83203 -0.293457 -2.92773 
-2.78711 -0.290283 -2.89453 
-2.73242 -0.286133 -2.85352 
-2.66992 -0.280762 -2.80078 
-2.60156 -0.275146 -2.74414 
-2.52344 -0.268311 -2.67578 
-2.46094 -0.262939 -2.62305 
-2.41406 -0.259033 -2.58398 
-2.37891 -0.256836 -2.56055 
-2.34766 -0.254639 -2.53906 
-2.31836 -0.252686 -2.51953 
-2.28711 -0.250488 -2.49805 
-2.25195 -0.248169 -2.47461 
-2.21484 -0.245239 -2.44531 
-2.17383 -0.242065 -2.41406 
-2.11133 -0.236328 -2.35742 
-2.05273 -0.230957 -2.30273 
-2.00977 -0.227173 -2.26562 
-1.97754 -0.224854 -2.24219 
-1.9541 -0.223267 -2.22656 
-1.94043 -0.223022 -2.22461 
-2.07617 -0.249512 -2.48828 
-2.08594 -0.251953 -2.51367 
-2.07031 -0.251465 -2.50977 
-2.10156 -0.256836 -2.5625 
-2.08984 -0.256836 -2.5625 
-2.08594 -0.257812 -2.57227 
-2.08398 -0.259277 -2.58594 
-2.0918 -0.261475 -2.60938 
-2.13281 -0.268311 -2.67578 
-2.17773 -0.275635 -2.74805 
-2.17578 -0.2771 -2.76562 
-2.2207 -0.284424 -2.83789 
-2.23633 -0.28833 -2.875 
-2.25391 -0.292236 -2.91602 
-2.26562 -0.295654 -2.94922 
-2.26758 -0.297607 -2.96875 
-2.25586 -0.298096 -2.97266 
-2.24023 -0.297852 -2.9707 
-2.22266 -0.297363 -2.9668 
-2.20312 -0.296631 -2.95898 
-2.18555 -0.295898 -2.95312 
-2.1543 -0.293945 -2.93164 
-2.11914 -0.366943 -3.66016 
-2.09375 -0.365479 -3.64453 
-2.07227 -0.364746 -3.63867 
-2.05078 -0.364258 -3.63281 
-2.03125 -0.363525 -3.62695 
-2.00586 -0.362061 -3.60938 
-1.98535 -0.361328 -3.60352 
-1.96582 -0.36084 -3.59961 
-1.94824 -0.36084 -3.59961 
-1.93164 -0.36084 -3.59961 
-1.91895 -0.361572 -3.60742 
-1.90723 -0.362793 -3.61719 
-1.89746 -0.364258 -3.63281 
-1.88867 -0.365723 -3.64844 
-1.87988 -0.367432 -3.66602 
-1.87207 -0.369385 -3.68359 
-1.86328 -0.371094 -3.70117 
-1.85352 -0.372559 -3.7168 
-1.84277 -0.374023 -3.73047 
-1.83008 -0.375 -3.74023 
-1.81543 -0.375732 -3.74609 
-1.7998 -0.375977 -3.75 
-1.7832 -0.376221 -3.75195 
-1.76465 -0.376221 -3.75195 
-1.74707 -0.376221 -3.75195 
-1.72949 -0.376221 -3.75195 
-1.71094 -0.376221 -3.75195 
-1.69336 -0.376221 -3.75195 
-1.67676 -0.376221 -3.75391 
-1.66211 -0.376953 -3.75977 
-1.64746 -0.37793 -3.76953 
-1.63672 -0.379395 -3.7832 
-1.62598 -0.381104 -3.80273 
-1.61816 -0.383545 -3.82422 
-1.60938 -0.385742 -3.84766 
-1.60059 -0.387939 -3.87109 
-1.58887 -0.389648 -3.88672 
-1.57617 -0.391113 -3.90039 
-1.56152 -0.391846 -3.91016 
-1.54297 -0.391846 -3.91016 
-1.52344 -0.391846 -3.9082 
-1.50586 -0.391846 -3.9082 
-1.48535 -0.391357 -3.90234 
0.471191 -0.390381 -3.89453 
0.488525 -0.389404 -3.88477 
0.504395 -0.387939 -3.86914 
0.516113 -0.382812 -3.81836 
0.534668 -0.383057 -3.82031 
0.553223 -0.383545 -3.82617 
0.573242 -0.384766 -3.83789 
0.59375 -0.386475 -3.85547 
0.615234 -0.388428 -3.875 
0.635742 -0.389648 -3.88672 
1.56348 -0.391846 -3.9082 
1.58008 -0.391357 -3.9043 
1.59668 -0.390869 -3.89844 
1.61621 -0.391113 -3.90039 
1.63672 -0.391602 -3.90625 
1.65625 -0.391846 -3.91016 
1.66895 -0.390625 -3.89648 
1.5 -0.176147 -1.75684 
1.50195 -0.175293 -1.74805 
1.50293 -0.174438 -1.74023 
1.50586 -0.173828 -1.73438 
1.50781 -0.173218 -1.72754 
1.50977 -0.172485 -1.7207 
1.51172 -0.171753 -1.71289 
1.5127 -0.170898 -1.70508 
1.51465 -0.170288 -1.69824 
1.51562 -0.169434 -1.69043 
1.51758 -0.168701 -1.68262 
1.51855 -0.168091 -1.67578 
1.52051 -0.167358 -1.66895 
1.52246 -0.166748 -1.66309 
1.52539 -0.166138 -1.65723 
1.52832 -0.165649 -1.65234 
1.53125 -0.165161 -1.64648 
1.53516 -0.164673 -1.64258 
1.54004 -0.164429 -1.63965 
1.5459 -0.164062 -1.63672 
1.55078 -0.16394 -1.63477 
1.55664 -0.163696 -1.63281 
1.56445 -0.163696 -1.63281 
1.57129 -0.163574 -1.63184 
1.58008 -0.163696 -1.63281 
1.58789 -0.163696 -1.63281 
1.59668 -0.163818 -1.63379 
1.60645 -0.164062 -1.63574 
1.61523 -0.164062 -1.63672 
1.62402 -0.164185 -1.6377 
1.63184 -0.164185 -1.6377 
-2.85742 -0.310303 -2.95508 
-2.80859 -0.306396 -2.91992 
-2.75195 -0.301758 -2.875 
-2.67773 -0.295166 -2.81055 
-2.60742 -0.288574 -2.75 
-2.52148 -0.280518 -2.67188 
-2.44922 -0.273926 -2.60938 
-2.39844 -0.269531 -2.56836 
-2.35938 -0.266602 -2.53906 
-2.32422 -0.263916 -2.51562 
-2.29297 -0.261719 -2.49219 
-2.25977 -0.259277 -2.46875 
-2.22461 -0.256592 -2.44336 
-2.18555 -0.253174 -2.41211 
-2.14062 -0.249634 -2.37695 
-2.08789 -0.244751 -2.33008 
-2.03125 -0.23938 -2.2793 
-1.99219 -0.235962 -2.24609 
-1.96289 -0.233765 -2.22656 
-1.94336 -0.232544 -2.21484 
-1.93359 -0.232666 -2.21484 
-2.08594 -0.263916 -2.51562 
-2.08008 -0.264648 -2.52148 
-2.07422 -0.265381 -2.52734 
-2.08398 -0.268311 -2.55664 
-2.07812 -0.269043 -2.5625 
-2.07422 -0.27002 -2.57227 
-2.08203 -0.272705 -2.59766 
-2.08594 -0.274902 -2.61914 
-2.26367 -0.307617 -2.92969 
-2.27734 -0.311279 -2.96484 
-2.27734 -0.313232 -2.98242 
-2.26562 -0.313477 -2.98633 
-2.25 -0.313232 -2.98242 
-2.23047 -0.3125 -2.97656 
-2.20898 -0.311523 -2.9668 
-2.19141 -0.310791 -2.96094 
-2.16016 -0.308594 -2.93945 
-2.11719 -0.380615 -3.625 
-2.0957 -0.380127 -3.62109 
-2.08203 -0.380615 -3.625 
-2.06055 -0.379883 -3.61914 
-2.04102 -0.37915 -3.61133 
-2.01953 -0.378418 -3.60352 
-1.99805 -0.377441 -3.5957 
-1.97656 -0.376709 -3.58984 
-1.95801 -0.376465 -3.58594 
-1.93945 -0.376221 -3.58398 
-1.92285 -0.376221 -3.58398 
-1.91016 -0.376953 -3.5918 
-1.89844 -0.378174 -3.60156 
-1.8877 -0.379395 -3.61328 
-1.87891 -0.381104 -3.62891 
-1.87012 -0.382812 -3.64648 
-1.8623 -0.384766 -3.66406 
-1.85449 -0.386719 -3.68164 
-1.84473 -0.388184 -3.69922 
-1.83398 -0.389893 -3.71289 
-1.82129 -0.390869 -3.72266 
-1.80664 -0.391357 -3.72852 
-1.78906 -0.391357 -3.72852 
-1.77051 -0.391357 -3.72656 
-1.75098 -0.390869 -3.72266 
-1.73047 -0.390137 -3.7168 
-1.70996 -0.389404 -3.70898 
-1.68945 -0.388916 -3.70312 
-1.66992 -0.388184 -3.69922 
-1.65137 -0.388184 -3.69727 
-1.63574 -0.388428 -3.70117 
-1.62207 -0.389404 -3.70898 
-1.61133 -0.391113 -3.72461 
-1.60254 -0.393311 -3.74609 
-1.5957 -0.395996 -3.77148 
-1.58887 -0.398926 -3.79883 
-1.58105 -0.401367 -3.82422 
-1.57227 -0.403809 -3.8457 
-1.55957 -0.405273 -3.85938 
-1.54492 -0.40625 -3.86914 
-1.52734 -0.40625 -3.87109 
-1.50586 -0.405518 -3.86133 
-1.48828 -0.405762 -3.86328 
-1.46289 -0.403809 -3.8457 
-1.44336 -0.40332 -3.8418 
-1.41895 -0.401611 -3.82422 
0.276123 -0.42041 -4.00391 
0.294434 -0.419678 -3.99805 
0.47168 -0.409424 -3.89844 
0.487061 -0.406738 -3.875 
0.50293 -0.405029 -3.85742 
0.51416 -0.399414 -3.80469 
0.532715 -0.399902 -3.80859 
0.551758 -0.400635 -3.81641 
0.571777 -0.401855 -3.82812 
0.592773 -0.403809 -3.84766 
0.61377 -0.406006 -3.86523 
0.634766 -0.407471 -3.88281 
1.41699 -0.416016 -3.96289 
1.43262 -0.415283 -3.95508 
1.52832 -0.406006 -3.86719 
1.55371 -0.407715 -3.88477 
1.57031 -0.407471 -3.88086 
1.58594 -0.406494 -3.87305 
1.60449 -0.406738 -3.87305 
1.625 -0.407227 -3.87891 
1.64648 -0.407959 -3.88477 
1.66504 -0.407959 -3.88672 
1.5 -0.186401 -1.77539 
1.50195 -0.185669 -1.76855 
1.50098 -0.184448 -1.75781 
1.50293 -0.183716 -1.74902 
1.50293 -0.182739 -1.74023 
1.50488 -0.182007 -1.7334 
1.50684 -0.181274 -1.72656 
1.50879 -0.18042 -1.71777 
1.51074 -0.179688 -1.71094 
1.51172 -0.178833 -1.70312 
1.5127 -0.178101 -1.69629 
1.51367 -0.177246 -1.68848 
1.51562 -0.176514 -1.68066 
1.51758 -0.175781 -1.67383 
1.51855 -0.175049 -1.66699 
1.52148 -0.174438 -1.66113 
1.52344 -0.173706 -1.65527 
1.52637 -0.173218 -1.65039 
1.53027 -0.172852 -1.64551 
1.53418 -0.172363 -1.6416 
1.54004 -0.172119 -1.63867 
1.54492 -0.171753 -1.63574 
1.55078 -0.171509 -1.63379 
1.55664 -0.171387 -1.63281 
1.56348 -0.171387 -1.63184 
1.57129 -0.171387 -1.63184 
1.5791 -0.171387 -1.63184 
1.58789 -0.171387 -1.63281 
1.59668 -0.171509 -1.63379 
1.60547 -0.171631 -1.63477 
1.61426 -0.171753 -1.63574 
1.62305 -0.171875 -1.63672 
1.63086 -0.171875 -1.63672 
-2.87305 -0.325928 -2.9707 
-2.82812 -0.32251 -2.93945 
-2.76953 -0.317139 -2.89062 
-2.69336 -0.310303 -2.82617 
-2.62109 -0.303223 -2.76367 
-2.51953 -0.293213 -2.67188 
-2.4375 -0.284912 -2.5957 
-2.38281 -0.280029 -2.55273 
-2.33984 -0.276367 -2.51953 
-2.30469 -0.273682 -2.49414 
-2.27148 -0.270996 -2.46875 
-2.23828 -0.268311 -2.44531 
-2.20117 -0.265381 -2.41797 
-2.16016 -0.261719 -2.38672 
-2.11719 -0.258057 -2.35156 
-2.06836 -0.253418 -2.30859 
-2.02148 -0.248779 -2.26758 
-1.98438 -0.245605 -2.23828 
-1.95508 -0.243286 -2.2168 
-1.93262 -0.241699 -2.20312 
-1.90918 -0.240112 -2.1875 
-2.07422 -0.275879 -2.51367 
-2.07227 -0.277344 -2.52734 
-2.08008 -0.279785 -2.55078 
-2.07031 -0.280273 -2.55469 
-2.06641 -0.28125 -2.5625 
-2.0625 -0.282471 -2.57422 
-2.29492 -0.327881 -2.98828 
-2.28906 -0.328857 -2.99805 
-2.27344 -0.328857 -2.99609 
-2.25586 -0.328369 -2.99219 
-2.23633 -0.327393 -2.98438 
-2.21484 -0.326172 -2.97461 
-2.19531 -0.325439 -2.96484 
-2.16602 -0.323242 -2.94727 
-1.53125 -0.252686 -2.30469 
-2.14453 -0.393311 -3.58594 
-2.125 -0.392822 -3.58008 
-2.11523 -0.394287 -3.59375 
-2.11523 -0.397461 -3.62305 
-2.08398 -0.39502 -3.59961 
-2.07031 -0.395508 -3.60352 
-2.05078 -0.39502 -3.59961 
-2.03125 -0.394531 -3.5957 
-2.00977 -0.393799 -3.58984 
-1.98926 -0.392822 -3.58008 
-1.96875 -0.392334 -3.57422 
-1.9502 -0.391846 -3.57031 
-1.93164 -0.391602 -3.56836 
-1.91602 -0.391846 -3.57031 
-1.90332 -0.392578 -3.57812 
-1.8916 -0.393799 -3.58984 
-1.88086 -0.39502 -3.59961 
-1.87109 -0.396484 -3.61328 
-1.8623 -0.398193 -3.63086 
-1.85352 -0.400146 -3.64648 
-1.8457 -0.4021 -3.66602 
-1.83594 -0.403809 -3.68164 
-1.8252 -0.405273 -3.69531 
-1.8125 -0.40625 -3.70312 
-1.7959 -0.406738 -3.70703 
-1.77734 -0.406494 -3.70508 
-1.75684 -0.405762 -3.69922 
-1.73535 -0.404785 -3.6875 
-1.71191 -0.403564 -3.67773 
-1.68945 -0.4021 -3.66602 
-1.66699 -0.400879 -3.6543 
-1.64551 -0.399902 -3.64453 
-1.62598 -0.399414 -3.64062 
-1.60938 -0.399414 -3.64062 
-1.5957 -0.400391 -3.64844 
-1.58496 -0.4021 -3.66406 
-1.57715 -0.404541 -3.68555 
-1.57129 -0.407471 -3.71289 
-1.56543 -0.410645 -3.74219 
-1.55859 -0.413574 -3.76953 
-1.5498 -0.416016 -3.79102 
-1.53809 -0.417725 -3.80664 
-1.52344 -0.418457 -3.81445 
-1.50586 -0.418701 -3.81641 
-1.48535 -0.417969 -3.81055 
-1.4668 -0.417725 -3.80664 
-1.44141 -0.415771 -3.78906 
-1.41309 -0.412842 -3.76172 
-1.3916 -0.411621 -3.75 
-1.36914 -0.410156 -3.73828 
-1.34961 -0.409424 -3.73242 
0.275391 -0.438477 -3.99609 
0.294189 -0.438232 -3.99414 
0.331787 -0.437744 -3.99023 
0.484375 -0.422852 -3.85352 
0.501465 -0.421875 -3.84375 
0.513184 -0.416504 -3.79688 
0.532227 -0.41748 -3.80469 
0.55127 -0.418213 -3.8125 
0.571289 -0.419678 -3.82422 
0.592285 -0.421875 -3.84375 
0.61377 -0.424072 -3.86523 
0.634766 -0.426025 -3.88281 
0.656738 -0.428223 -3.90234 
1.41211 -0.43335 -3.95117 
1.42773 -0.432373 -3.94141 
1.50488 -0.427734 -3.89844 
1.50781 -0.423584 -3.85938 
1.52246 -0.422607 -3.85156 
1.54102 -0.422607 -3.85156 
1.55566 -0.421875 -3.84375 
1.57031 -0.420898 -3.83594 
1.58984 -0.420898 -3.83789 
1.61035 -0.421631 -3.84375 
1.63184 -0.422607 -3.85156 
1.65332 -0.42334 -3.85938 
1.67188 -0.42334 -3.85938 
1.68848 -0.423096 -3.85547 
1.49121 -0.197021 -1.7959 
1.49707 -0.196655 -1.79297 
1.5 -0.195923 -1.78516 
1.49902 -0.194702 -1.77441 
1.50098 -0.193848 -1.7666 
1.50098 -0.192871 -1.75781 
1.50195 -0.191772 -1.74805 
1.50293 -0.190918 -1.74023 
1.50391 -0.190063 -1.73242 
1.50586 -0.189209 -1.72461 
1.50684 -0.188354 -1.71582 
1.50879 -0.1875 -1.70898 
1.50977 -0.186646 -1.70117 
1.51074 -0.185791 -1.69336 
1.51172 -0.185059 -1.68652 
1.5127 -0.184082 -1.67773 
1.51465 -0.18335 -1.6709 
1.5166 -0.182739 -1.66504 
1.51953 -0.182007 -1.65918 
1.52148 -0.181396 -1.65332 
1.52539 -0.180908 -1.64941 
1.52832 -0.18042 -1.64355 
1.5332 -0.180054 -1.64062 
1.53906 -0.179688 -1.6377 
1.54492 -0.179443 -1.63574 
1.55078 -0.179321 -1.63379 
1.55566 -0.179077 -1.63184 
1.56348 -0.179077 -1.63184 
1.57031 -0.178955 -1.63086 
1.57812 -0.178955 -1.63086 
1.58691 -0.179077 -1.63184 
1.5957 -0.179199 -1.63281 
1.60449 -0.179321 -1.63379 
1.61328 -0.179321 -1.63477 
1.62207 -0.179443 -1.63574 
1.62988 -0.179443 -1.63574 
-2.89258 -0.342529 -2.99219 
-2.84961 -0.338867 -2.96094 
-2.79297 -0.33374 -2.91602 
-2.71484 -0.326172 -2.84961 
-2.64258 -0.319092 -2.78711 
-2.51953 -0.305664 -2.67188 
-2.42188 -0.295166 -2.58008 
-2.36719 -0.290039 -2.5332 
-2.32227 -0.285889 -2.49805 
-2.28711 -0.283203 -2.47461 
-2.25391 -0.280518 -2.45117 
-2.2207 -0.277832 -2.42578 
-2.18359 -0.274658 -2.39844 
-2.14453 -0.270996 -2.36719 
-2.10156 -0.266846 -2.33203 
-2.05469 -0.262451 -2.29492 
-2.01172 -0.258301 -2.25781 
-1.97754 -0.255127 -2.23047 
-1.94922 -0.25293 -2.20898 
-1.92676 -0.251465 -2.19727 
-1.9043 -0.249878 -2.18164 
-2.07031 -0.288818 -2.52344 
-2.07617 -0.291504 -2.54688 
-2.06445 -0.291504 -2.54688 
-2.06055 -0.29248 -2.55469 
-2.06641 -0.295166 -2.58008 
-2.30664 -0.345703 -3.02148 
-2.2793 -0.34375 -3.00195 
-2.25977 -0.343018 -2.99609 
-2.23828 -0.341797 -2.98633 
-2.21484 -0.340332 -2.97461 
-2.19336 -0.339355 -2.96484 
-2.17578 -0.338623 -2.95898 
-1.54004 -0.265381 -2.31836 
-2.10547 -0.403076 -3.52148 
-2.09375 -0.404053 -3.53125 
-2.09961 -0.408447 -3.56836 
-2.08008 -0.407715 -3.5625 
-2.07227 -0.409668 -3.57812 
-2.05469 -0.409424 -3.57812 
-2.03711 -0.409424 -3.57812 
-2.01953 -0.40918 -3.57422 
-2 -0.408691 -3.57031 
-1.98047 -0.407959 -3.56445 
-1.96094 -0.407471 -3.56055 
-1.94238 -0.406982 -3.55664 
-1.9248 -0.406982 -3.55664 
-1.91016 -0.407227 -3.55859 
-1.89746 -0.408203 -3.56641 
-1.88574 -0.409424 -3.57617 
-1.87402 -0.410645 -3.58789 
-1.86328 -0.411865 -3.59961 
-1.85352 -0.413574 -3.61328 
-1.84473 -0.415527 -3.63086 
-1.83594 -0.41748 -3.64648 
-1.82715 -0.419189 -3.66406 
-1.81543 -0.420654 -3.67578 
-1.80176 -0.421387 -3.68164 
-1.78418 -0.421387 -3.68164 
-1.76465 -0.420898 -3.67773 
-1.74219 -0.419678 -3.66602 
-1.71777 -0.417969 -3.65234 
-1.69336 -0.41626 -3.63672 
-1.66895 -0.414551 -3.62109 
-1.64453 -0.412842 -3.60547 
-1.62305 -0.411377 -3.5957 
-1.60254 -0.410645 -3.58789 
-1.58496 -0.410645 -3.58789 
-1.57129 -0.411377 -3.59375 
-1.56055 -0.412842 -3.60742 
-1.55273 -0.415283 -3.62891 
-1.5459 -0.418457 -3.65625 
-1.54004 -0.421387 -3.68164 
-1.53418 -0.424561 -3.70898 
-1.52441 -0.426758 -3.73047 
-1.51367 -0.428467 -3.74414 
-1.49805 -0.429199 -3.75 
-1.47949 -0.429199 -3.75 
-1.45996 -0.428467 -3.74414 
-1.43848 -0.42749 -3.73633 
-1.41504 -0.425781 -3.7207 
-1.38965 -0.423096 -3.69727 
-1.36621 -0.421631 -3.68359 
-1.33789 -0.418213 -3.65234 
-1.31641 -0.416748 -3.64258 
-1.29492 -0.415283 -3.62891 
-1.27539 -0.414551 -3.62305 
0.275146 -0.457031 -3.99414 
0.294189 -0.457031 -3.99219 
0.3125 -0.456299 -3.98633 
0.331299 -0.456055 -3.98438 
0.457764 -0.450684 -3.9375 
0.484131 -0.440674 -3.85156 
0.500977 -0.439697 -3.8418 
0.512695 -0.434326 -3.79492 
0.532227 -0.435547 -3.80664 
0.55127 -0.436523 -3.81445 
0.571777 -0.438232 -3.82812 
0.592773 -0.440186 -3.8457 
0.614258 -0.442627 -3.86719 
0.635254 -0.44458 -3.88477 
0.656738 -0.446777 -3.9043 
1.34668 -0.455322 -3.97852 
1.36328 -0.45459 -3.9707 
1.37793 -0.453369 -3.96094 
1.39453 -0.452393 -3.95312 
1.41016 -0.45166 -3.94531 
1.4248 -0.450195 -3.93359 
1.46582 -0.445557 -3.89258 
1.47852 -0.444092 -3.88086 
1.47949 -0.438721 -3.83203 
1.49609 -0.438232 -3.83008 
1.50879 -0.436768 -3.81641 
1.52344 -0.436035 -3.80859 
1.53516 -0.434082 -3.79297 
1.55273 -0.434082 -3.79102 
1.57129 -0.434326 -3.79297 
1.59277 -0.435059 -3.80078 
1.61523 -0.436279 -3.81055 
1.6377 -0.4375 -3.82227 
1.65918 -0.438232 -3.83008 
1.67969 -0.438965 -3.83594 
1.70117 -0.439941 -3.84375 
1.72266 -0.440674 -3.85156 
1.74023 -0.44043 -3.84961 
1.76367 -0.441895 -3.85938 
1.78418 -0.442383 -3.86523 
1.48926 -0.20752 -1.81348 
1.49121 -0.206665 -1.80566 
1.49121 -0.205444 -1.7959 
1.49414 -0.204712 -1.78809 
1.49512 -0.203735 -1.78027 
1.49707 -0.202881 -1.77246 
1.49805 -0.201782 -1.76367 
1.49902 -0.200928 -1.75488 
1.5 -0.199829 -1.74609 
1.50098 -0.198975 -1.73828 
1.50293 -0.197998 -1.73047 
1.50391 -0.197144 -1.72266 
1.50488 -0.196167 -1.71387 
1.50586 -0.195312 -1.70605 
1.50684 -0.194336 -1.69824 
1.50879 -0.193604 -1.69141 
1.50977 -0.192627 -1.68262 
1.51074 -0.191772 -1.67578 
1.5127 -0.19104 -1.66895 
1.51465 -0.190308 -1.66309 
1.51758 -0.189697 -1.65723 
1.52051 -0.189087 -1.65234 
1.52344 -0.188477 -1.64648 
1.52734 -0.187988 -1.64258 
1.5332 -0.187744 -1.63965 
1.53809 -0.187378 -1.63672 
1.54395 -0.187134 -1.63477 
1.5498 -0.18689 -1.63281 
1.55566 -0.186768 -1.63184 
1.5625 -0.186646 -1.63086 
1.56934 -0.186523 -1.62988 
1.57715 -0.186523 -1.62988 
1.58496 -0.186523 -1.62988 
1.59375 -0.186646 -1.63086 
1.60254 -0.186768 -1.63184 
1.61133 -0.18689 -1.63281 
1.62012 -0.187012 -1.63379 
1.62891 -0.187134 -1.63477 
-2.91406 -0.359131 -3.01367 
-2.87891 -0.356445 -2.99023 
-2.82422 -0.351318 -2.94922 
-2.74219 -0.343018 -2.87695 
-2.68164 -0.337158 -2.82812 
-2.39648 -0.304443 -2.55469 
-2.3457 -0.299316 -2.51172 
-2.30078 -0.295166 -2.47656 
-2.26953 -0.292725 -2.45508 
-2.23828 -0.290039 -2.43359 
-2.20703 -0.287354 -2.41211 
-2.16992 -0.28418 -2.38477 
-2.13086 -0.280518 -2.35352 
-2.08984 -0.276367 -2.31836 
-2.04688 -0.272217 -2.2832 
-2.00586 -0.268066 -2.25 
-1.97168 -0.265137 -2.22461 
-1.94434 -0.262695 -2.20508 
-1.92285 -0.26123 -2.19141 
-1.90137 -0.259766 -2.17773 
-2.06055 -0.299316 -2.51172 
-2.04883 -0.299561 -2.51367 
-2.05469 -0.302002 -2.5332 
-2.03711 -0.30127 -2.52734 
-2.31445 -0.361084 -3.0293 
-2.27344 -0.356934 -2.99609 
-2.25586 -0.356445 -2.99219 
-2.23438 -0.355225 -2.98047 
-2.20703 -0.353271 -2.96484 
-2.18555 -0.352051 -2.95312 
-2.16797 -0.351318 -2.94727 
-1.54688 -0.277588 -2.32812 
-2.08398 -0.415283 -3.48438 
-2.06836 -0.415771 -3.48828 
-2.06836 -0.418945 -3.51562 
-2.05273 -0.419189 -3.51758 
-2.05469 -0.422852 -3.54883 
-2.03906 -0.423096 -3.55078 
-2.02344 -0.42334 -3.55273 
-2.00586 -0.42334 -3.55273 
-1.98926 -0.423096 -3.55078 
-1.9707 -0.422852 -3.54688 
-1.95117 -0.422363 -3.54297 
-1.93359 -0.422119 -3.54102 
-1.91699 -0.422119 -3.54102 
-1.90234 -0.422607 -3.54492 
-1.89062 -0.423584 -3.55469 
-1.87988 -0.425049 -3.56641 
-1.86719 -0.426025 -3.57422 
-1.85547 -0.427246 -3.58398 
-1.84473 -0.428711 -3.59766 
-1.83594 -0.430664 -3.61328 
-1.82715 -0.432373 -3.62891 
-1.81641 -0.434082 -3.64258 
-1.80469 -0.435303 -3.65234 
-1.78906 -0.435791 -3.6582 
-1.77148 -0.435547 -3.65625 
-1.75 -0.434814 -3.64648 
-1.72656 -0.433105 -3.63281 
-1.70117 -0.430908 -3.61523 
-1.67578 -0.428955 -3.59766 
-1.64941 -0.426514 -3.57812 
-1.625 -0.424561 -3.5625 
-1.60254 -0.423096 -3.55078 
-1.58203 -0.422119 -3.54102 
-1.56445 -0.421875 -3.53906 
-1.5498 -0.422607 -3.54492 
-1.53809 -0.423828 -3.55664 
-1.5293 -0.426025 -3.57422 
-1.52246 -0.428955 -3.59766 
-1.51562 -0.431641 -3.62305 
-1.50781 -0.43457 -3.64453 
-1.49805 -0.436523 -3.66406 
-1.48438 -0.437988 -3.67383 
-1.46777 -0.438232 -3.67578 
-1.44922 -0.437744 -3.67383 
-1.42871 -0.436768 -3.66602 
-1.4082 -0.435547 -3.65625 
-1.38477 -0.433838 -3.64062 
-1.36035 -0.431641 -3.62109 
-1.33887 -0.429932 -3.60742 
-1.31348 -0.42749 -3.58789 
-1.29297 -0.42627 -3.57617 
-1.27344 -0.425293 -3.56836 
-1.25098 -0.423584 -3.55469 
-1.23242 -0.422852 -3.54883 
-1.21582 -0.423096 -3.54883 
-1.20312 -0.424316 -3.56055 
-1.1875 -0.424805 -3.56445 
0.275146 -0.47583 -3.99219 
0.293701 -0.475342 -3.98828 
0.312256 -0.474854 -3.98438 
0.330811 -0.474365 -3.98047 
0.349609 -0.474121 -3.97852 
0.471924 -0.464844 -3.90039 
0.484375 -0.459229 -3.85352 
0.501465 -0.458496 -3.8457 
0.513184 -0.452637 -3.79883 
0.533691 -0.45459 -3.81445 
0.552734 -0.455566 -3.82227 
0.572754 -0.457031 -3.83594 
0.593262 -0.459229 -3.85156 
0.614746 -0.461426 -3.87109 
0.63623 -0.463623 -3.89062 
0.657227 -0.465576 -3.9082 
0.678711 -0.467773 -3.92383 
0.98584 -0.472412 -3.96289 
1.00391 -0.472412 -3.96289 
1.02441 -0.473145 -3.9707 
1.04395 -0.473389 -3.97266 
1.06348 -0.473877 -3.97461 
1.3252 -0.4729 -3.96875 
1.3418 -0.472412 -3.96289 
1.3584 -0.47168 -3.95898 
1.37305 -0.470459 -3.94727 
1.38672 -0.46875 -3.93164 
1.40039 -0.467041 -3.91797 
1.41309 -0.465088 -3.90234 
1.42188 -0.461914 -3.87695 
1.43359 -0.459473 -3.85547 
1.44531 -0.457764 -3.83984 
1.45605 -0.455322 -3.82031 
1.4668 -0.453125 -3.80078 
1.47949 -0.451416 -3.78711 
1.49121 -0.449707 -3.77344 
1.50488 -0.448242 -3.76172 
1.5166 -0.446777 -3.74805 
1.53418 -0.446533 -3.74609 
1.55273 -0.446777 -3.74805 
1.57324 -0.44751 -3.75586 
1.5957 -0.448975 -3.76758 
1.61914 -0.450439 -3.7793 
1.6416 -0.45166 -3.78906 
1.66406 -0.452881 -3.80078 
1.68555 -0.453857 -3.80859 
1.70703 -0.454834 -3.81641 
1.72266 -0.454102 -3.81055 
1.73828 -0.453369 -3.80469 
1.75781 -0.453857 -3.80859 
1.77637 -0.453857 -3.80859 
1.80176 -0.456055 -3.82617 
1.82129 -0.456299 -3.82812 
1.83594 -0.455322 -3.82031 
1.85547 -0.455811 -3.82422 
1.48828 -0.217407 -1.82324 
1.48535 -0.215576 -1.80859 
1.4873 -0.214722 -1.80176 
1.48926 -0.213745 -1.79395 
1.49121 -0.212769 -1.78516 
1.49316 -0.211792 -1.77734 
1.49414 -0.210815 -1.76855 
1.49512 -0.209839 -1.76074 
1.49707 -0.208862 -1.75195 
1.49707 -0.207764 -1.74316 
1.49902 -0.206787 -1.73535 
1.5 -0.205811 -1.72754 
1.50098 -0.204956 -1.71875 
1.50098 -0.203857 -1.70996 
1.50195 -0.202881 -1.70215 
1.50293 -0.201904 -1.69434 
1.50488 -0.20105 -1.6875 
1.50684 -0.200195 -1.67969 
1.50781 -0.199463 -1.67285 
1.50977 -0.198608 -1.66602 
1.5127 -0.197876 -1.66016 
1.51465 -0.197144 -1.6543 
1.51855 -0.196655 -1.65039 
1.52148 -0.196045 -1.64453 
1.52637 -0.195557 -1.64062 
1.53125 -0.19519 -1.6377 
1.53613 -0.194824 -1.63477 
1.54199 -0.19458 -1.63281 
1.54785 -0.194336 -1.63086 
1.55469 -0.194214 -1.62988 
1.56055 -0.194092 -1.62891 
1.56738 -0.19397 -1.62793 
1.5752 -0.19397 -1.62793 
1.58301 -0.19397 -1.62793 
1.5918 -0.194092 -1.62891 
1.60059 -0.194214 -1.62988 
1.60938 -0.194336 -1.63086 
1.61816 -0.194458 -1.63184 
1.62695 -0.19458 -1.63281 
-2.93164 -0.375732 -3.03125 
-2.90234 -0.373779 -3.01562 
-2.84766 -0.368652 -2.97461 
-2.74414 -0.356689 -2.87891 
-2.68945 -0.351562 -2.83594 
-2.38281 -0.314453 -2.53711 
-2.32812 -0.308838 -2.49219 
-2.2832 -0.304443 -2.45703 
-2.25586 -0.302246 -2.43945 
-2.22656 -0.300049 -2.41992 
-2.19531 -0.297363 -2.39844 
-2.16016 -0.294189 -2.37305 
-2.12109 -0.290283 -2.34375 
-2.08008 -0.286133 -2.31055 
-2.03906 -0.281982 -2.27539 
-2 -0.278076 -2.24414 
-1.96777 -0.274902 -2.21875 
-1.94043 -0.272461 -2.19922 
-1.91992 -0.27124 -2.18945 
-1.89941 -0.269775 -2.17578 
-2.06055 -0.311279 -2.51172 
-2.04492 -0.310547 -2.50586 
-2.03516 -0.310791 -2.50977 
-2.03125 -0.312012 -2.51953 
-2.25781 -0.368652 -2.97461 
-2.23633 -0.367432 -2.96484 
-2.21875 -0.366943 -2.96094 
-2.19141 -0.364502 -2.94141 
-2.16797 -0.363037 -2.92969 
-2.14844 -0.362061 -2.92188 
-2.11719 -0.359375 -2.89844 
-1.55176 -0.289307 -2.33594 
-2.06055 -0.423584 -3.41797 
-2.05664 -0.42627 -3.43945 
-2.05078 -0.428223 -3.45508 
-2.04102 -0.429932 -3.46875 
-2.03516 -0.431885 -3.48633 
-2.0332 -0.435059 -3.50977 
-2.02148 -0.436279 -3.51953 
-2.00781 -0.436768 -3.52344 
-1.99219 -0.437012 -3.52539 
-1.97559 -0.437012 -3.52539 
-1.95801 -0.436768 -3.52344 
-1.93945 -0.436279 -3.52148 
-1.92188 -0.436035 -3.51953 
-1.90527 -0.436279 -3.51953 
-1.8916 -0.437012 -3.52539 
-1.88184 -0.438477 -3.53906 
-1.87207 -0.440186 -3.55273 
-1.85938 -0.440918 -3.55859 
-1.8457 -0.44165 -3.56445 
-1.83496 -0.443359 -3.57617 
-1.8252 -0.445068 -3.5918 
-1.81543 -0.446777 -3.60547 
-1.80469 -0.448486 -3.61914 
-1.79297 -0.449707 -3.62891 
-1.77637 -0.449951 -3.63086 
-1.75781 -0.449463 -3.62695 
-1.73535 -0.447998 -3.61523 
-1.70996 -0.446045 -3.59961 
-1.68457 -0.443848 -3.58203 
-1.6582 -0.441406 -3.5625 
-1.63379 -0.439209 -3.54297 
-1.6084 -0.437012 -3.52734 
-1.58594 -0.435303 -3.51367 
-1.56543 -0.434326 -3.50391 
-1.54688 -0.433838 -3.5 
-1.53125 -0.434082 -3.50195 
-1.51855 -0.435059 -3.51172 
-1.50879 -0.437012 -3.52734 
-1.5 -0.439209 -3.54492 
-1.49121 -0.44165 -3.56445 
-1.48145 -0.443848 -3.58008 
-1.46973 -0.445312 -3.59375 
-1.45508 -0.446045 -3.59961 
-1.43652 -0.445557 -3.5957 
-1.41699 -0.444824 -3.58984 
-1.39551 -0.443604 -3.57812 
-1.37402 -0.441895 -3.56641 
-1.35156 -0.440186 -3.55273 
-1.32812 -0.438232 -3.53516 
-1.30762 -0.436768 -3.52344 
-1.28613 -0.435059 -3.51172 
-1.26758 -0.43457 -3.50586 
-1.25098 -0.43457 -3.50586 
-1.2334 -0.434082 -3.50391 
-1.21777 -0.434326 -3.50586 
-1.2002 -0.434082 -3.50195 
-1.18555 -0.43457 -3.50781 
-1.1709 -0.435547 -3.51562 
-1.15723 -0.436768 -3.52539 
-1.14551 -0.438477 -3.53906 
0.312256 -0.493652 -3.98438 
0.330811 -0.493164 -3.98047 
0.472168 -0.483643 -3.90234 
0.486572 -0.479492 -3.87109 
0.5 -0.475098 -3.83398 
0.518555 -0.475586 -3.83789 
0.535645 -0.474365 -3.82812 
0.554688 -0.475342 -3.83594 
0.574219 -0.476562 -3.8457 
0.594727 -0.478516 -3.86133 
0.616211 -0.480713 -3.88086 
0.637695 -0.483154 -3.89844 
0.658691 -0.485107 -3.91406 
0.679688 -0.486816 -3.92969 
0.700195 -0.488037 -3.9375 
0.861816 -0.495361 -3.99609 
0.879883 -0.495117 -3.99414 
0.897949 -0.494385 -3.99023 
0.915039 -0.493408 -3.98242 
0.932129 -0.492676 -3.97461 
0.950195 -0.492188 -3.9707 
0.96582 -0.490723 -3.95898 
0.984375 -0.490479 -3.95703 
1.00488 -0.491211 -3.96484 
1.02246 -0.490967 -3.96289 
1.04492 -0.492676 -3.97461 
1.06445 -0.492676 -3.97656 
1.08105 -0.491699 -3.96875 
1.09961 -0.491943 -3.96875 
1.11914 -0.492188 -3.9707 
1.1377 -0.491943 -3.9707 
1.30469 -0.491455 -3.96484 
1.32129 -0.490479 -3.95703 
1.33691 -0.489502 -3.94922 
1.35352 -0.48877 -3.94336 
1.36621 -0.486328 -3.92383 
1.37793 -0.484131 -3.9082 
1.38965 -0.481689 -3.88672 
1.40039 -0.479004 -3.86523 
1.41016 -0.476318 -3.84375 
1.41992 -0.473389 -3.82031 
1.42969 -0.470703 -3.79883 
1.44043 -0.468262 -3.7793 
1.4502 -0.46582 -3.75781 
1.46191 -0.463867 -3.74219 
1.47168 -0.461426 -3.72266 
1.48438 -0.459717 -3.70898 
1.49805 -0.45874 -3.70117 
1.51465 -0.458496 -3.69922 
1.53418 -0.45874 -3.70312 
1.55469 -0.459717 -3.71094 
1.57715 -0.461182 -3.72266 
1.60059 -0.462891 -3.73633 
1.62402 -0.4646 -3.74805 
1.64648 -0.466064 -3.75977 
1.66895 -0.467285 -3.77148 
1.69043 -0.468262 -3.7793 
1.70801 -0.468018 -3.77734 
1.72559 -0.468018 -3.77734 
1.74512 -0.468262 -3.7793 
1.7627 -0.468262 -3.7793 
1.7793 -0.468018 -3.77734 
1.80469 -0.470215 -3.79297 
1.82227 -0.469971 -3.79102 
1.83691 -0.469238 -3.78516 
1.85645 -0.469727 -3.78906 
1.89258 -0.304932 -2.46094 
1.89844 -0.303955 -2.45312 
1.90625 -0.303223 -2.44727 
1.90625 -0.301514 -2.43359 
1.48145 -0.224854 -1.81445 
1.4834 -0.223877 -1.80664 
1.48535 -0.2229 -1.79883 
1.48633 -0.221802 -1.78906 
1.48828 -0.220703 -1.78125 
1.48926 -0.219604 -1.77246 
1.49023 -0.218628 -1.76465 
1.49219 -0.217651 -1.75684 
1.49316 -0.216675 -1.74805 
1.49512 -0.215698 -1.74023 
1.49609 -0.2146 -1.73242 
1.49707 -0.213623 -1.72461 
1.49805 -0.212524 -1.71484 
1.49805 -0.211426 -1.70605 
1.49805 -0.210327 -1.69727 
1.5 -0.209473 -1.69043 
1.50098 -0.208618 -1.68262 
1.50293 -0.207642 -1.67578 
1.50488 -0.206787 -1.66895 
1.50684 -0.206055 -1.66309 
1.50977 -0.205322 -1.65723 
1.5127 -0.204712 -1.65234 
1.51562 -0.204102 -1.64648 
1.51953 -0.203491 -1.6416 
1.52344 -0.203003 -1.6377 
1.52832 -0.202637 -1.63477 
