ply
format ascii 1.0
element vertex 2739
property float x
property float y
property float z
end_header
-1.137 0.557 1.183
-1.129 0.556 1.185
-1.121 0.556 1.187
-1.117 0.557 1.193
-1.113 0.558 1.199
-1.106 0.557 1.202
-1.099 0.557 1.204
-1.093 0.557 1.208
-1.086 0.557 1.211
-1.08 0.556 1.214
-1.074 0.557 1.218
-1.066 0.556 1.22
-1.06 0.556 1.223
-1.051 0.554 1.223
-1.044 0.554 1.226
-1.039 0.554 1.23
-1.033 0.555 1.234
-1.026 0.554 1.236
-1.019 0.554 1.239
-1.011 0.553 1.24
-1.006 0.553 1.244
-1.001 0.554 1.249
-0.996 0.555 1.254
-0.989 0.555 1.256
-0.982 0.554 1.257
-0.972 0.552 1.256
-0.964 0.55 1.256
-0.956 0.55 1.257
-0.951 0.55 1.261
-0.944 0.55 1.263
-0.935 0.548 1.262
-0.921 0.544 1.255
-0.902 0.536 1.239
0 0 0
0 0 0
0 0 0
0 0 0
0 0 0
-0.881 0.545 1.277
-0.879 0.547 1.286
-0.874 0.548 1.291
-0.868 0.548 1.293
-0.863 0.549 1.297
-0.855 0.548 1.298
-0.849 0.548 1.3
-0.842 0.547 1.301
-0.835 0.547 1.303
-0.83 0.547 1.306
-0.824 0.548 1.31
-0.819 0.548 1.314
-0.812 0.548 1.315
-0.807 0.548 1.319
-0.799 0.547 1.318
-0.792 0.546 1.319
-0.784 0.545 1.319
-0.779 0.546 1.322
-0.771 0.545 1.322
-0.766 0.545 1.325
-0.759 0.544 1.326
-0.753 0.545 1.329
-0.747 0.545 1.331
-0.741 0.545 1.333
-0.735 0.545 1.336
-0.729 0.545 1.338
-0.722 0.544 1.339
-0.716 0.544 1.34
-0.709 0.544 1.342
-0.702 0.543 1.342
-0.696 0.543 1.343
-0.689 0.542 1.343
-0.682 0.542 1.345
-0.676 0.541 1.346
-0.671 0.542 1.35
-0.664 0.542 1.351
-0.658 0.542 1.353
-0.653 0.543 1.357
-0.647 0.543 1.359
-0.641 0.543 1.361
-0.635 0.542 1.362
-0.629 0.542 1.364
-0.621 0.541 1.362
-0.615 0.54 1.363
-0.608 0.54 1.363
-0.602 0.54 1.366
-0.597 0.541 1.37
-0.593 0.542 1.375
-0.587 0.543 1.377
-0.581 0.543 1.38
-0.576 0.544 1.384
-0.569 0.543 1.384
-0.564 0.543 1.386
-0.556 0.542 1.385
-0.55 0.542 1.386
-0.542 0.54 1.382
-0.534 0.539 1.38
-0.525 0.535 1.373
-0.515 0.531 1.364
-0.501 0.522 1.342
0 0 0
0 0 0
0 0 0
0 0 0
0 0 0
0 0 0
0 0 0
-0.47 0.541 1.402
-0.465 0.541 1.404
-0.459 0.542 1.407
-0.453 0.542 1.408
-0.448 0.542 1.411
-0.441 0.542 1.412
-0.436 0.543 1.414
-0.429 0.542 1.415
-0.423 0.542 1.415
-0.416 0.541 1.414
-0.411 0.542 1.417
-0.405 0.542 1.418
-0.399 0.542 1.42
-0.393 0.542 1.421
-0.387 0.542 1.422
-0.381 0.542 1.423
-0.374 0.542 1.423
-0.368 0.542 1.424
-0.363 0.542 1.427
-0.356 0.542 1.427
-0.35 0.541 1.426
-0.344 0.541 1.426
-0.337 0.54 1.426
-0.331 0.54 1.427
-0.326 0.541 1.43
-0.32 0.542 1.433
-0.314 0.542 1.435
-0.308 0.542 1.436
-0.302 0.542 1.436
-0.296 0.542 1.436
-0.29 0.541 1.435
-0.284 0.542 1.438
-0.278 0.542 1.44
-0.273 0.543 1.443
-0.267 0.544 1.445
-0.261 0.544 1.446
-0.255 0.544 1.446
-0.249 0.544 1.447
-0.242 0.543 1.445
-0.236 0.543 1.446
-0.23 0.544 1.45
-0.224 0.543 1.449
-0.218 0.544 1.451
-0.212 0.544 1.451
-0.206 0.543 1.451
-0.2 0.544 1.452
-0.194 0.543 1.452
-0.188 0.543 1.452
-0.182 0.543 1.452
-0.176 0.544 1.455
-0.17 0.544 1.456
-0.164 0.545 1.458
-0.158 0.545 1.46
-0.152 0.545 1.46
-0.146 0.545 1.459
-0.139 0.543 1.456
-0.133 0.544 1.457
-0.127 0.544 1.458
-0.122 0.546 1.463
-0.116 0.546 1.464
-0.109 0.546 1.464
-0.103 0.546 1.464
-0.097 0.545 1.464
-0.091 0.545 1.462
-0.085 0.545 1.462
-0.079 0.546 1.465
-0.073 0.547 1.468
-0.067 0.547 1.47
-0.061 0.548 1.472
-0.055 0.548 1.471
-0.049 0.547 1.47
-0.043 0.548 1.472
-0.037 0.547 1.471
-0.03 0.548 1.472
-0.024 0.549 1.475
-0.018 0.55 1.477
-0.012 0.55 1.478
-0.006 0.551 1.48
0 0.55 1.478
0.006 0.55 1.478
0.012 0.55 1.479
0.018 0.549 1.475
0.025 0.549 1.475
0.031 0.548 1.473
0.037 0.549 1.475
0.043 0.549 1.475
0.049 0.55 1.479
0.055 0.551 1.479
0.061 0.551 1.479
0.068 0.551 1.48
0.074 0.55 1.478
0.08 0.55 1.476
0.086 0.55 1.476
0.092 0.551 1.478
0.098 0.551 1.479
0.105 0.552 1.48
0.111 0.552 1.48
0.117 0.552 1.481
0.123 0.552 1.48
0.129 0.552 1.48
0.135 0.552 1.48
0.142 0.553 1.481
0.148 0.553 1.481
0.154 0.553 1.482
0.161 0.554 1.483
0.167 0.554 1.482
0.173 0.555 1.484
0.18 0.555 1.485
0.186 0.556 1.486
0.192 0.556 1.485
0.198 0.556 1.485
0.204 0.556 1.484
0.211 0.555 1.483
0.217 0.555 1.482
0.223 0.555 1.48
0.229 0.555 1.481
0.236 0.556 1.482
0.242 0.556 1.481
0.248 0.557 1.482
0.255 0.558 1.486
0.262 0.559 1.486
0.268 0.559 1.486
0.275 0.56 1.489
0.282 0.562 1.492
0.288 0.561 1.49
0.295 0.562 1.491
0.301 0.563 1.493
0.308 0.564 1.494
0.314 0.564 1.493
0.32 0.563 1.491
0.326 0.562 1.488
0.332 0.562 1.485
0.338 0.56 1.481
0.344 0.561 1.481
0.351 0.562 1.482
0.358 0.563 1.484
0.365 0.565 1.488
0.372 0.566 1.491
0.379 0.566 1.49
0.385 0.567 1.49
0.393 0.568 1.492
0.398 0.567 1.488
0.405 0.568 1.489
0.411 0.567 1.487
0.418 0.568 1.489
0.424 0.567 1.484
0.43 0.567 1.483
0.438 0.569 1.486
0.444 0.569 1.485
0.451 0.57 1.486
0.458 0.571 1.488
0.465 0.572 1.489
0.472 0.572 1.488
0.479 0.572 1.488
0.485 0.572 1.485
0.491 0.572 1.483
0.497 0.572 1.482
0.503 0.571 1.478
0.51 0.572 1.479
0.519 0.574 1.484
0.526 0.575 1.485
0.533 0.575 1.484
0.539 0.576 1.484
0.545 0.575 1.48
0.55 0.574 1.475
0.557 0.574 1.475
0.563 0.573 1.471
0.565 0.569 1.458
0 0 0
0 0 0
0.5 0.488 1.246
0.497 0.479 1.223
0.5 0.477 1.215
0.504 0.476 1.212
0.51 0.476 1.21
0.516 0.477 1.211
0.525 0.48 1.218
0.533 0.483 1.223
0.542 0.486 1.229
0.552 0.491 1.239
0 0 0
0 0 0
0 0 0
0 0 0
0 0 0
0 0 0
0 0 0
0 0 0
0 0 0
0 0 0
0 0 0
0.666 0.528 1.312
0.671 0.528 1.309
0.679 0.529 1.311
0.686 0.531 1.312
0.693 0.531 1.312
0.71 0.54 1.33
0.735 0.554 1.364
0.759 0.567 1.393
0.774 0.574 1.407
0.785 0.577 1.413
0.789 0.575 1.406
0.788 0.57 1.391
0.791 0.567 1.382
0.794 0.565 1.375
0.8 0.565 1.371
0.808 0.566 1.373
0.819 0.57 1.378
0.826 0.57 1.377
0.839 0.574 1.384
0.849 0.577 1.388
0.859 0.58 1.392
0.873 0.584 1.401
0.885 0.588 1.407
0.895 0.59 1.41
0.908 0.594 1.417
0.918 0.596 1.419
0.926 0.598 1.419
0.936 0.6 1.421
0.945 0.601 1.422
0.958 0.605 1.428
0.97 0.608 1.433
0.98 0.611 1.435
0.989 0.612 1.435
0.999 0.614 1.436
1.004 0.612 1.43
1.009 0.611 1.425
1.018 0.613 1.425
1.027 0.614 1.425
1.036 0.616 1.425
1.047 0.618 1.427
1.056 0.619 1.427
1.063 0.619 1.424
1.071 0.62 1.422
1.079 0.62 1.419
1.083 0.618 1.412
1.092 0.62 1.412
1.1 0.621 1.41
1.108 0.621 1.408
1.119 0.623 1.409
1.132 0.627 1.413
1.137 0.626 1.407
1.145 0.626 1.405
1.151 0.626 1.4
1.159 0.626 1.398
1.166 0.626 1.394
1.177 0.628 1.395
1.185 0.629 1.392
1.195 0.63 1.392
1.204 0.632 1.391
1.214 0.633 1.39
1.223 0.634 1.389
1.23 0.634 1.385
1.24 0.636 1.384
1.246 0.635 1.379
1.255 0.636 1.377
1.263 0.637 1.374
1.276 0.64 1.376
1.284 0.64 1.373
1.293 0.641 1.37
1.302 0.642 1.368
1.312 0.643 1.367
1.321 0.644 1.364
1.333 0.646 1.365
1.341 0.647 1.361
1.349 0.647 1.358
1.359 0.648 1.356
1.37 0.65 1.355
1.377 0.65 1.35
1.387 0.651 1.348
1.398 0.653 1.347
1.404 0.652 1.341
1.415 0.654 1.34
1.425 0.656 1.338
1.438 0.658 1.338
1.453 0.661 1.34
1.468 0.665 1.342
1.475 0.665 1.337
1.488 0.667 1.337
1.496 0.667 1.332
1.504 0.668 1.328
1.51 0.667 1.321
1.526 0.671 1.323
1.538 0.673 1.322
1.549 0.674 1.319
1.557 0.675 1.314
1.574 0.679 1.317
1.582 0.679 1.312
1.59 0.679 1.306
1.603 0.681 1.305
1.616 0.684 1.304
1.625 0.684 1.299
1.64 0.687 1.299
1.654 0.69 1.298
1.667 0.692 1.296
1.677 0.693 1.292
1.684 0.693 1.285
1.688 0.691 1.276
1.7 0.693 1.273
1.715 0.696 1.272
1.726 0.697 1.268
1.739 0.7 1.266
1.762 0.706 1.27
1.777 0.709 1.269
1.793 0.712 1.268
1.802 0.712 1.262
1.814 0.714 1.258
1.827 0.716 1.254
1.832 0.714 1.245
1.843 0.716 1.24
0 0 0
0 0 0
0 0 0
0 0 0
0 0 0
0 0 0
0 0 0
0 0 0
0 0 0
0 0 0
0 0 0
0 0 0
0 0 0
0 0 0
0 0 0
0 0 0
0 0 0
0 0 0
0 0 0
0 0 0
0 0 0
0 0 0
0 0 0
0 0 0
0 0 0
0 0 0
0 0 0
0 0 0
0 0 0
0 0 0
0 0 0
0 0 0
0 0 0
0 0 0
0 0 0
0 0 0
0 0 0
0 0 0
0 0 0
0 0 0
0 0 0
0 0 0
0 0 0
0 0 0
0 0 0
0 0 0
0 0 0
0 0 0
0 0 0
-1.494 0.587 1
0 0 0
0 0 0
0 0 0
0 0 0
-1.464 0.588 1.03
-1.454 0.586 1.033
-1.446 0.585 1.037
-1.441 0.586 1.044
-1.429 0.584 1.045
-1.421 0.583 1.049
-1.413 0.582 1.053
-1.406 0.582 1.058
-1.393 0.579 1.058
-1.386 0.579 1.063
-1.379 0.579 1.068
-1.371 0.578 1.071
-1.363 0.577 1.075
-1.359 0.579 1.082
-1.354 0.579 1.088
-1.342 0.577 1.088
-1.336 0.577 1.093
-1.325 0.575 1.094
-1.313 0.572 1.094
-1.303 0.571 1.096
-1.296 0.571 1.1
-1.287 0.569 1.102
-1.278 0.568 1.104
-1.272 0.568 1.109
-1.264 0.567 1.112
-1.261 0.569 1.119
-1.252 0.568 1.121
-1.248 0.568 1.127
-1.24 0.568 1.13
-1.233 0.568 1.134
-1.228 0.568 1.139
-1.221 0.568 1.143
-1.214 0.567 1.146
-1.209 0.568 1.151
-1.199 0.566 1.152
-1.191 0.565 1.154
-1.185 0.565 1.158
-1.178 0.565 1.162
-1.171 0.565 1.165
-1.166 0.565 1.17
-1.158 0.564 1.172
-1.149 0.563 1.173
-1.14 0.562 1.174
-1.132 0.561 1.176
-1.125 0.561 1.179
-1.117 0.56 1.181
-1.114 0.561 1.188
-1.109 0.562 1.193
-1.103 0.562 1.196
-1.095 0.561 1.198
-1.089 0.561 1.202
-1.082 0.56 1.204
-1.075 0.56 1.207
-1.068 0.56 1.209
-1.062 0.56 1.213
-1.054 0.559 1.215
-1.045 0.558 1.215
-1.038 0.557 1.217
-1.032 0.557 1.221
-1.026 0.557 1.224
-1.02 0.557 1.227
-1.014 0.557 1.231
-1.007 0.557 1.233
-1 0.556 1.235
-0.995 0.557 1.239
-0.99 0.558 1.244
-0.982 0.557 1.245
-0.976 0.557 1.248
-0.967 0.555 1.247
-0.96 0.554 1.249
-0.952 0.553 1.25
-0.947 0.554 1.254
-0.94 0.553 1.256
-0.93 0.551 1.254
-0.917 0.547 1.247
-0.9 0.54 1.235
0 0 0
0 0 0
0 0 0
0 0 0
0 0 0
-0.874 0.546 1.265
-0.872 0.549 1.274
-0.868 0.551 1.28
-0.863 0.551 1.284
-0.857 0.551 1.287
-0.85 0.551 1.288
-0.845 0.551 1.292
-0.838 0.551 1.294
-0.831 0.55 1.295
-0.826 0.551 1.299
-0.821 0.552 1.303
-0.815 0.552 1.306
-0.808 0.551 1.306
-0.803 0.551 1.31
-0.794 0.55 1.309
-0.787 0.549 1.309
-0.779 0.548 1.309
-0.774 0.549 1.313
-0.767 0.548 1.313
-0.761 0.548 1.316
-0.755 0.548 1.318
-0.75 0.549 1.322
-0.744 0.548 1.324
-0.736 0.547 1.323
-0.73 0.547 1.325
-0.723 0.547 1.326
-0.716 0.546 1.326
-0.71 0.546 1.328
-0.705 0.546 1.332
-0.698 0.546 1.333
-0.692 0.546 1.335
-0.685 0.545 1.335
-0.678 0.544 1.335
-0.672 0.544 1.336
-0.667 0.545 1.341
-0.661 0.545 1.342
-0.655 0.545 1.345
-0.65 0.546 1.349
-0.644 0.546 1.35
-0.638 0.546 1.352
-0.631 0.545 1.353
-0.626 0.546 1.356
-0.619 0.545 1.355
-0.613 0.545 1.358
-0.606 0.544 1.358
-0.6 0.545 1.36
-0.595 0.545 1.364
-0.59 0.546 1.366
-0.584 0.546 1.368
-0.578 0.546 1.37
-0.572 0.546 1.373
-0.565 0.545 1.372
-0.56 0.546 1.376
-0.553 0.545 1.375
-0.547 0.545 1.376
-0.539 0.543 1.373
-0.531 0.541 1.37
-0.522 0.538 1.363
-0.512 0.534 1.355
-0.499 0.527 1.337
0 0 0
0 0 0
0 0 0
0 0 0
0 0 0
0 0 0
-0.465 0.534 1.365
-0.463 0.538 1.378
-0.459 0.54 1.385
-0.455 0.543 1.392
-0.449 0.543 1.393
-0.444 0.544 1.397
-0.438 0.544 1.4
-0.433 0.545 1.404
-0.427 0.545 1.405
-0.421 0.545 1.406
-0.414 0.544 1.405
-0.408 0.545 1.407
-0.402 0.545 1.408
-0.397 0.545 1.41
-0.391 0.545 1.411
-0.385 0.545 1.413
-0.378 0.545 1.413
-0.372 0.544 1.413
-0.366 0.544 1.412
-0.36 0.544 1.413
-0.353 0.543 1.413
-0.347 0.542 1.411
-0.34 0.542 1.411
-0.334 0.541 1.411
-0.329 0.542 1.413
-0.323 0.543 1.417
-0.318 0.544 1.42
-0.312 0.544 1.423
-0.306 0.545 1.424
-0.3 0.545 1.425
-0.294 0.544 1.424
-0.288 0.544 1.424
-0.282 0.544 1.426
-0.276 0.544 1.428
-0.27 0.545 1.43
-0.265 0.546 1.433
-0.259 0.546 1.434
-0.253 0.546 1.435
-0.247 0.546 1.436
-0.24 0.545 1.434
-0.234 0.545 1.435
-0.229 0.546 1.437
-0.223 0.546 1.438
-0.217 0.546 1.439
-0.211 0.546 1.439
-0.205 0.546 1.44
-0.199 0.547 1.442
-0.193 0.546 1.441
-0.187 0.546 1.441
-0.181 0.546 1.443
-0.175 0.546 1.443
-0.169 0.546 1.444
-0.163 0.546 1.445
-0.157 0.547 1.448
-0.151 0.547 1.447
-0.145 0.547 1.447
-0.138 0.545 1.444
-0.132 0.546 1.445
-0.126 0.546 1.445
-0.121 0.548 1.451
-0.115 0.548 1.451
-0.109 0.548 1.453
-0.103 0.548 1.452
-0.097 0.548 1.454
-0.09 0.547 1.451
-0.085 0.548 1.453
-0.079 0.549 1.457
-0.073 0.55 1.459
-0.067 0.55 1.46
-0.061 0.551 1.462
-0.055 0.551 1.462
-0.048 0.55 1.46
-0.042 0.55 1.461
-0.036 0.55 1.46
-0.03 0.55 1.461
-0.024 0.552 1.465
-0.018 0.552 1.465
-0.012 0.553 1.468
-0.006 0.554 1.471
0 0.554 1.47
0.006 0.553 1.468
0.012 0.553 1.469
0.018 0.552 1.467
0.024 0.552 1.465
0.03 0.552 1.465
0.037 0.553 1.467
0.043 0.552 1.466
0.049 0.554 1.47
0.055 0.553 1.469
0.061 0.554 1.47
0.067 0.554 1.469
0.073 0.554 1.469
0.079 0.553 1.468
0.085 0.553 1.468
0.092 0.554 1.47
0.098 0.554 1.47
0.104 0.555 1.471
0.11 0.555 1.471
0.116 0.555 1.472
0.123 0.556 1.472
0.129 0.556 1.472
0.135 0.556 1.471
0.141 0.556 1.472
0.147 0.556 1.472
0.153 0.556 1.471
0.16 0.557 1.474
0.166 0.558 1.476
0.172 0.558 1.476
0.179 0.559 1.476
0.185 0.559 1.477
0.191 0.559 1.475
0.197 0.559 1.475
0.203 0.559 1.474
0.21 0.559 1.474
0.216 0.559 1.473
0.222 0.558 1.471
0.228 0.558 1.471
0.234 0.559 1.473
0.241 0.559 1.472
0.247 0.56 1.473
0.254 0.562 1.477
0.26 0.562 1.477
0.266 0.562 1.476
0.273 0.563 1.479
0.28 0.565 1.482
0.286 0.564 1.48
0.293 0.565 1.481
0.3 0.566 1.484
0.306 0.566 1.482
0.312 0.566 1.482
0.319 0.567 1.482
0.324 0.565 1.478
0.33 0.565 1.476
0.337 0.565 1.475
0.343 0.565 1.475
0.35 0.567 1.478
0.357 0.568 1.479
0.364 0.569 1.481
0.371 0.57 1.482
0.377 0.569 1.48
0.383 0.569 1.479
0.391 0.571 1.483
0.397 0.572 1.483
0.404 0.572 1.483
0.41 0.573 1.483
0.417 0.573 1.483
0.422 0.571 1.477
0.428 0.571 1.476
0.436 0.573 1.478
0.442 0.573 1.477
0.449 0.573 1.477
0.457 0.575 1.481
0.463 0.576 1.481
0.47 0.576 1.48
0.477 0.576 1.48
0.483 0.576 1.478
0.489 0.576 1.476
0.495 0.576 1.474
0.501 0.575 1.471
0.508 0.576 1.472
0.516 0.578 1.475
0.523 0.579 1.476
0.53 0.579 1.475
0.537 0.58 1.475
0.542 0.578 1.469
0.547 0.577 1.466
0.553 0.577 1.463
0.559 0.576 1.459
0.559 0.57 1.442
0 0 0
0 0 0
0.502 0.495 1.249
0.499 0.487 1.226
0.502 0.485 1.22
0.508 0.485 1.218
0.514 0.485 1.219
0.521 0.487 1.222
0.531 0.491 1.231
0.539 0.494 1.236
0.548 0.497 1.242
0.558 0.501 1.249
0.567 0.504 1.256
0.576 0.508 1.263
0.582 0.507 1.261
0.588 0.508 1.261
0 0 0
0 0 0
0 0 0
0 0 0
0 0 0
0 0 0
0.663 0.537 1.319
0.669 0.537 1.317
0.673 0.536 1.312
0.679 0.536 1.31
0.688 0.538 1.313
0.696 0.539 1.315
0.709 0.545 1.326
0.727 0.554 1.346
0.745 0.563 1.367
0.758 0.568 1.377
0.77 0.572 1.384
0.777 0.573 1.383
0.779 0.57 1.374
0.784 0.569 1.369
0.788 0.567 1.362
0.795 0.567 1.361
0.803 0.569 1.362
0.814 0.572 1.367
0.822 0.573 1.368
0.836 0.579 1.378
0.848 0.583 1.385
0.859 0.586 1.39
0.874 0.591 1.4
0.887 0.596 1.409
0.894 0.596 1.407
0.906 0.6 1.412
0.916 0.602 1.414
0.923 0.602 1.412
0.932 0.604 1.413
0.943 0.606 1.416
0.954 0.609 1.42
0.965 0.612 1.423
0.974 0.613 1.424
0.981 0.614 1.422
0.991 0.616 1.423
0.997 0.615 1.419
1.005 0.616 1.417
1.013 0.617 1.416
1.021 0.618 1.415
1.031 0.619 1.416
1.04 0.62 1.415
1.049 0.622 1.415
1.055 0.621 1.411
1.064 0.622 1.41
1.069 0.622 1.405
1.075 0.621 1.4
1.084 0.622 1.399
1.093 0.624 1.399
1.103 0.625 1.399
1.113 0.627 1.4
1.126 0.63 1.404
1.132 0.63 1.399
1.139 0.63 1.396
1.144 0.629 1.39
1.155 0.631 1.391
1.161 0.63 1.386
1.171 0.632 1.386
1.179 0.633 1.384
1.191 0.635 1.385
1.198 0.636 1.382
1.209 0.637 1.382
1.217 0.638 1.38
1.224 0.638 1.376
1.232 0.639 1.373
1.239 0.639 1.369
1.248 0.64 1.367
1.257 0.641 1.365
1.269 0.643 1.366
1.276 0.643 1.362
1.282 0.643 1.357
1.293 0.644 1.356
1.303 0.646 1.355
1.314 0.648 1.355
1.327 0.651 1.357
1.337 0.652 1.355
1.344 0.652 1.35
1.351 0.652 1.346
1.363 0.654 1.346
1.371 0.654 1.342
1.38 0.655 1.339
1.392 0.657 1.339
1.4 0.658 1.335
1.409 0.659 1.332
1.418 0.66 1.329
1.432 0.662 1.33
1.442 0.664 1.328
1.456 0.667 1.329
1.464 0.667 1.325
1.476 0.669 1.324
1.484 0.67 1.319
1.495 0.671 1.317
1.502 0.671 1.312
1.513 0.673 1.31
1.523 0.674 1.307
1.531 0.674 1.302
1.539 0.674 1.297
1.556 0.678 1.299
1.565 0.679 1.295
1.575 0.68 1.292
1.591 0.684 1.293
1.603 0.686 1.291
1.612 0.686 1.286
1.624 0.688 1.284
1.632 0.688 1.278
1.638 0.688 1.271
1.649 0.689 1.268
1.656 0.689 1.261
1.665 0.689 1.256
1.683 0.694 1.258
1.699 0.697 1.258
1.71 0.699 1.254
1.724 0.701 1.252
1.743 0.706 1.254
1.76 0.71 1.254
1.777 0.713 1.254
1.785 0.713 1.247
1.798 0.715 1.244
1.809 0.716 1.239
1.811 0.714 1.228
0 0 0
0 0 0
0 0 0
0 0 0
0 0 0
0 0 0
0 0 0
0 0 0
0 0 0
0 0 0
0 0 0
0 0 0
0 0 0
0 0 0
0 0 0
0 0 0
0 0 0
0 0 0
0 0 0
0 0 0
0 0 0
0 0 0
0 0 0
0 0 0
0 0 0
0 0 0
0 0 0
0 0 0
0 0 0
0 0 0
0 0 0
0 0 0
0 0 0
0 0 0
0 0 0
0 0 0
0 0 0
0 0 0
0 0 0
0 0 0
0 0 0
0 0 0
0 0 0
0 0 0
0 0 0
0 0 0
0 0 0
0 0 0
0 0 0
0 0 0
0 0 0
0 0 0
0 0 0
-1.478 0.594 1.017
-1.469 0.593 1.021
-1.462 0.593 1.026
-1.449 0.59 1.027
-1.438 0.588 1.029
-1.433 0.589 1.036
-1.421 0.587 1.037
-1.413 0.586 1.041
-1.406 0.586 1.046
-1.399 0.586 1.051
-1.383 0.582 1.049
-1.378 0.582 1.055
-1.369 0.581 1.058
-1.36 0.58 1.061
-1.352 0.579 1.064
-1.348 0.58 1.071
-1.342 0.58 1.076
-1.332 0.579 1.078
-1.326 0.579 1.083
-1.315 0.577 1.084
-1.306 0.575 1.086
-1.3 0.576 1.091
-1.291 0.575 1.094
-1.282 0.573 1.096
-1.275 0.573 1.1
-1.269 0.573 1.104
-1.26 0.572 1.106
-1.254 0.572 1.111
-1.246 0.571 1.114
-1.242 0.572 1.12
-1.233 0.571 1.122
-1.227 0.571 1.126
-1.22 0.571 1.13
-1.213 0.57 1.133
-1.205 0.57 1.136
-1.201 0.571 1.142
-1.193 0.57 1.144
-1.185 0.569 1.147
-1.18 0.57 1.152
-1.172 0.569 1.154
-1.164 0.568 1.156
-1.158 0.568 1.16
-1.149 0.566 1.161
-1.14 0.565 1.162
-1.133 0.565 1.165
-1.127 0.565 1.169
-1.12 0.564 1.172
-1.114 0.564 1.176
-1.11 0.566 1.182
-1.104 0.565 1.185
-1.096 0.565 1.187
-1.088 0.564 1.189
-1.082 0.564 1.192
-1.074 0.563 1.194
-1.068 0.563 1.197
-1.06 0.562 1.199
-1.055 0.562 1.203
-1.049 0.562 1.207
-1.04 0.561 1.207
-1.034 0.561 1.21
-1.028 0.561 1.214
-1.019 0.56 1.214
-1.013 0.559 1.217
-1.008 0.56 1.222
-1 0.559 1.223
-0.995 0.56 1.227
-0.991 0.561 1.233
-0.987 0.562 1.238
-0.977 0.56 1.237
-0.972 0.56 1.241
-0.962 0.558 1.24
-0.956 0.558 1.243
-0.948 0.557 1.243
-0.942 0.557 1.246
-0.935 0.557 1.248
-0.925 0.554 1.245
-0.911 0.549 1.237
-0.898 0.545 1.23
0 0 0
0 0 0
0 0 0
0 0 0
0 0 0
0 0 0
-0.862 0.549 1.258
-0.862 0.553 1.27
-0.859 0.554 1.276
-0.852 0.554 1.278
-0.846 0.554 1.281
-0.841 0.555 1.284
-0.834 0.554 1.285
-0.827 0.553 1.286
-0.822 0.554 1.29
-0.816 0.554 1.294
-0.81 0.554 1.296
-0.804 0.555 1.299
-0.799 0.555 1.302
-0.791 0.554 1.302
-0.784 0.553 1.302
-0.777 0.552 1.303
-0.771 0.552 1.305
-0.763 0.551 1.305
-0.757 0.551 1.307
-0.751 0.551 1.309
-0.745 0.551 1.312
-0.74 0.551 1.315
-0.733 0.551 1.315
-0.726 0.55 1.317
-0.719 0.55 1.317
-0.713 0.549 1.319
-0.707 0.549 1.32
-0.702 0.55 1.324
-0.695 0.549 1.325
-0.689 0.549 1.327
-0.682 0.548 1.327
-0.675 0.548 1.327
-0.668 0.547 1.327
-0.663 0.547 1.33
-0.657 0.547 1.332
-0.651 0.548 1.335
-0.647 0.549 1.34
-0.64 0.549 1.341
-0.635 0.549 1.344
-0.629 0.549 1.346
-0.623 0.549 1.348
-0.616 0.548 1.348
-0.61 0.549 1.35
-0.604 0.548 1.351
-0.597 0.548 1.351
-0.592 0.548 1.354
-0.586 0.548 1.356
-0.58 0.548 1.358
-0.574 0.548 1.36
-0.569 0.549 1.364
-0.563 0.549 1.365
-0.557 0.549 1.367
-0.55 0.549 1.367
-0.545 0.549 1.369
-0.537 0.547 1.366
-0.529 0.545 1.364
-0.521 0.543 1.36
-0.513 0.54 1.354
-0.501 0.535 1.341
0 0 0
0 0 0
0 0 0
0 0 0
0 0 0
0 0 0
0 0 0
0 0 0
-0.456 0.543 1.374
-0.452 0.545 1.382
-0.446 0.545 1.382
-0.441 0.546 1.387
-0.436 0.548 1.392
-0.431 0.548 1.395
-0.425 0.549 1.397
-0.419 0.549 1.399
-0.413 0.549 1.399
-0.407 0.549 1.4
-0.401 0.548 1.401
-0.395 0.548 1.402
-0.389 0.549 1.404
-0.383 0.549 1.405
-0.376 0.548 1.404
-0.37 0.547 1.404
-0.364 0.547 1.403
-0.358 0.547 1.404
-0.352 0.546 1.404
-0.345 0.546 1.403
-0.339 0.546 1.404
-0.333 0.546 1.405
-0.327 0.546 1.407
-0.322 0.547 1.411
-0.317 0.549 1.416
-0.311 0.548 1.416
-0.305 0.548 1.417
-0.299 0.548 1.417
-0.292 0.547 1.415
-0.286 0.547 1.416
-0.281 0.548 1.418
-0.275 0.548 1.42
-0.269 0.548 1.421
-0.263 0.549 1.423
-0.257 0.548 1.422
-0.251 0.547 1.421
-0.245 0.548 1.423
-0.239 0.548 1.424
-0.233 0.548 1.426
-0.227 0.548 1.426
-0.222 0.549 1.429
-0.216 0.549 1.43
-0.209 0.549 1.429
-0.203 0.548 1.429
-0.198 0.549 1.432
-0.191 0.549 1.431
-0.185 0.548 1.431
-0.18 0.549 1.434
-0.174 0.549 1.434
-0.168 0.549 1.434
-0.162 0.549 1.435
-0.156 0.549 1.436
-0.15 0.549 1.435
-0.144 0.549 1.435
-0.137 0.548 1.434
-0.132 0.549 1.436
-0.126 0.549 1.436
-0.12 0.551 1.441
-0.114 0.551 1.442
-0.108 0.551 1.443
-0.102 0.551 1.443
-0.096 0.551 1.444
-0.09 0.55 1.44
-0.084 0.55 1.442
-0.078 0.552 1.446
-0.072 0.552 1.447
-0.066 0.552 1.448
-0.06 0.554 1.452
-0.054 0.554 1.454
-0.048 0.554 1.452
-0.042 0.553 1.451
-0.036 0.553 1.45
-0.03 0.553 1.45
-0.024 0.554 1.454
-0.018 0.555 1.456
-0.012 0.557 1.461
-0.006 0.557 1.462
0 0.557 1.462
0.006 0.556 1.458
0.012 0.556 1.458
0.018 0.555 1.456
0.024 0.555 1.456
0.03 0.555 1.456
0.036 0.556 1.458
0.042 0.556 1.458
0.049 0.556 1.459
0.055 0.556 1.459
0.061 0.556 1.458
0.067 0.556 1.457
0.073 0.556 1.457
0.079 0.555 1.456
0.085 0.556 1.456
0.091 0.556 1.458
0.097 0.557 1.459
0.103 0.557 1.46
0.11 0.558 1.462
0.116 0.558 1.462
0.122 0.558 1.461
0.128 0.558 1.461
0.134 0.559 1.462
0.14 0.559 1.462
0.146 0.559 1.463
0.153 0.56 1.464
0.159 0.561 1.465
0.165 0.561 1.467
0.171 0.561 1.466
0.178 0.561 1.465
0.184 0.561 1.464
0.19 0.561 1.464
0.196 0.561 1.463
0.202 0.561 1.462
0.208 0.561 1.462
0.214 0.561 1.462
0.22 0.561 1.461
0.226 0.561 1.46
0.232 0.561 1.459
0.239 0.561 1.459
0.245 0.561 1.458
0.251 0.562 1.46
0.258 0.562 1.46
0.264 0.563 1.461
0.271 0.565 1.466
0.278 0.566 1.468
0.284 0.566 1.467
0.291 0.567 1.468
0.297 0.568 1.47
0.303 0.567 1.467
0.31 0.568 1.468
0.316 0.568 1.468
0.322 0.567 1.464
0.328 0.568 1.465
0.335 0.568 1.466
0.341 0.569 1.467
0.348 0.57 1.469
0.355 0.571 1.469
0.361 0.571 1.468
0.367 0.571 1.467
0.373 0.57 1.463
0.38 0.571 1.465
0.388 0.574 1.473
0.395 0.575 1.474
0.402 0.576 1.475
0.409 0.576 1.475
0.415 0.576 1.474
0.42 0.575 1.468
0.427 0.575 1.468
0.434 0.576 1.47
0.44 0.576 1.468
0.447 0.577 1.47
0.455 0.579 1.473
0.461 0.579 1.472
0.468 0.579 1.471
0.474 0.58 1.471
0.48 0.579 1.468
0.486 0.579 1.466
0.493 0.579 1.465
0.499 0.579 1.464
0.507 0.581 1.467
0.515 0.583 1.471
0.522 0.583 1.47
0.529 0.584 1.47
0.535 0.584 1.468
0.54 0.582 1.462
0.546 0.582 1.46
0.551 0.581 1.456
0.555 0.579 1.449
0.553 0.57 1.426
0 0 0
0 0 0
0.5 0.498 1.241
0.498 0.49 1.221
0.502 0.489 1.217
0.508 0.49 1.217
0.514 0.491 1.217
0.522 0.493 1.222
0.533 0.498 1.233
0.542 0.502 1.24
0.553 0.507 1.251
0.563 0.511 1.26
0 0 0
0 0 0
0 0 0
0 0 0
0 0 0
0 0 0
0 0 0
0 0 0
0 0 0
0 0 0
0 0 0
0 0 0
0.677 0.544 1.317
0.683 0.545 1.316
0.692 0.547 1.32
0.7 0.549 1.322
0.711 0.552 1.328
0.724 0.558 1.34
0.739 0.564 1.353
0.75 0.568 1.36
0.762 0.573 1.369
0.772 0.575 1.372
0.778 0.575 1.37
0.784 0.575 1.368
0.79 0.575 1.364
0.796 0.574 1.361
0.805 0.576 1.363
0.815 0.579 1.368
0.825 0.582 1.371
0.837 0.586 1.378
0.85 0.59 1.386
0.858 0.592 1.387
0.873 0.597 1.397
0.886 0.602 1.405
0.894 0.603 1.405
0.905 0.605 1.408
0.914 0.607 1.409
0.921 0.607 1.407
0.93 0.609 1.408
0.938 0.61 1.408
0.948 0.612 1.41
0.959 0.615 1.413
0.968 0.617 1.414
0.974 0.616 1.41
0.983 0.618 1.41
0.991 0.618 1.408
0.998 0.618 1.406
1.006 0.619 1.405
1.015 0.62 1.404
1.025 0.622 1.405
1.034 0.624 1.405
1.042 0.625 1.404
1.049 0.625 1.401
1.055 0.624 1.397
1.061 0.624 1.392
1.065 0.622 1.385
1.075 0.624 1.386
1.085 0.626 1.387
1.096 0.628 1.389
1.107 0.63 1.39
1.12 0.634 1.394
1.125 0.633 1.389
1.132 0.633 1.385
1.139 0.633 1.381
1.148 0.634 1.381
1.152 0.632 1.373
1.162 0.634 1.373
1.171 0.635 1.372
1.179 0.636 1.37
1.187 0.637 1.367
1.197 0.638 1.367
1.208 0.64 1.367
1.215 0.641 1.364
1.224 0.641 1.362
1.233 0.642 1.36
1.242 0.643 1.358
1.251 0.644 1.356
1.261 0.646 1.355
1.268 0.646 1.351
1.275 0.646 1.347
1.284 0.647 1.345
1.292 0.648 1.342
1.304 0.65 1.342
1.317 0.653 1.344
1.326 0.654 1.342
1.334 0.654 1.338
1.342 0.655 1.335
1.355 0.657 1.336
1.365 0.659 1.334
1.373 0.659 1.33
1.386 0.662 1.331
1.397 0.664 1.33
1.405 0.664 1.326
1.415 0.665 1.324
1.43 0.669 1.326
1.437 0.669 1.321
1.446 0.67 1.318
1.454 0.67 1.313
1.463 0.671 1.31
1.473 0.672 1.307
1.484 0.674 1.305
1.493 0.675 1.302
1.501 0.675 1.297
1.513 0.677 1.296
1.525 0.679 1.294
1.537 0.681 1.293
1.551 0.684 1.293
1.565 0.687 1.293
1.577 0.689 1.291
1.59 0.691 1.29
1.598 0.691 1.284
1.609 0.693 1.281
1.618 0.694 1.277
1.625 0.693 1.27
1.633 0.693 1.265
1.646 0.696 1.263
1.651 0.695 1.255
1.667 0.698 1.255
1.68 0.7 1.253
1.69 0.701 1.249
1.703 0.703 1.246
1.715 0.705 1.243
1.729 0.708 1.241
1.746 0.712 1.241
1.764 0.716 1.242
1.773 0.716 1.236
1.785 0.718 1.232
1.8 0.721 1.23
0 0 0
0 0 0
0 0 0
0 0 0
0 0 0
0 0 0
0 0 0
0 0 0
0 0 0
0 0 0
0 0 0
0 0 0
0 0 0
0 0 0
0 0 0
0 0 0
0 0 0
0 0 0
0 0 0
0 0 0
0 0 0
0 0 0
0 0 0
0 0 0
0 0 0
0 0 0
0 0 0
0 0 0
0 0 0
0 0 0
0 0 0
0 0 0
0 0 0
0 0 0
0 0 0
0 0 0
0 0 0
0 0 0
0 0 0
0 0 0
0 0 0
0 0 0
0 0 0
0 0 0
0 0 0
0 0 0
0 0 0
0 0 0
0 0 0
0 0 0
-1.5 0.599 0.989
-1.492 0.599 0.994
-1.489 0.6 1.002
-1.482 0.6 1.007
-1.474 0.599 1.012
-1.467 0.599 1.017
-1.457 0.597 1.02
-1.444 0.595 1.021
-1.435 0.594 1.025
-1.431 0.595 1.032
-1.416 0.591 1.031
-1.409 0.591 1.036
-1.404 0.591 1.042
-1.393 0.589 1.044
-1.378 0.586 1.043
-1.372 0.586 1.048
-1.363 0.585 1.051
-1.352 0.583 1.052
-1.345 0.583 1.057
-1.338 0.582 1.061
-1.333 0.583 1.067
-1.325 0.582 1.07
-1.319 0.582 1.075
-1.307 0.579 1.075
-1.301 0.58 1.08
-1.295 0.58 1.085
-1.287 0.579 1.088
-1.276 0.577 1.089
-1.27 0.577 1.093
-1.262 0.576 1.096
-1.254 0.575 1.099
-1.247 0.575 1.103
-1.24 0.574 1.106
-1.233 0.574 1.11
-1.228 0.575 1.115
-1.22 0.574 1.118
-1.216 0.575 1.124
-1.207 0.574 1.126
-1.202 0.574 1.131
-1.196 0.574 1.135
-1.186 0.573 1.136
-1.178 0.572 1.138
-1.173 0.572 1.143
-1.166 0.572 1.146
-1.155 0.569 1.145
-1.149 0.569 1.149
-1.142 0.569 1.152
-1.134 0.568 1.154
-1.126 0.567 1.156
-1.123 0.569 1.163
-1.116 0.568 1.166
-1.11 0.568 1.169
-1.104 0.568 1.173
-1.096 0.568 1.175
-1.088 0.567 1.177
-1.082 0.566 1.18
-1.073 0.565 1.181
-1.067 0.565 1.184
-1.062 0.566 1.189
-1.053 0.564 1.189
-1.048 0.565 1.194
-1.043 0.565 1.198
-1.036 0.565 1.2
-1.028 0.564 1.202
-1.025 0.565 1.208
-1.016 0.564 1.208
-1.009 0.564 1.211
-1.004 0.564 1.215
-0.996 0.563 1.216
-0.99 0.563 1.219
-0.985 0.563 1.223
-0.978 0.563 1.226
-0.968 0.561 1.224
-0.963 0.561 1.228
-0.954 0.559 1.227
-0.949 0.56 1.232
-0.942 0.559 1.233
-0.937 0.56 1.238
-0.93 0.56 1.239
-0.921 0.558 1.238
-0.909 0.554 1.233
-0.9 0.553 1.232
-0.884 0.546 1.22
0 0 0
0 0 0
0 0 0
0 0 0
0 0 0
0 0 0
-0.853 0.553 1.254
-0.851 0.556 1.263
-0.844 0.555 1.264
-0.84 0.556 1.27
-0.835 0.557 1.274
-0.828 0.556 1.274
-0.822 0.556 1.277
-0.817 0.557 1.281
-0.811 0.557 1.284
-0.805 0.557 1.286
-0.799 0.557 1.289
-0.794 0.558 1.293
-0.787 0.557 1.293
-0.78 0.556 1.294
-0.773 0.555 1.295
-0.767 0.555 1.297
-0.759 0.554 1.296
-0.753 0.554 1.298
-0.747 0.554 1.301
-0.742 0.555 1.305
-0.737 0.555 1.308
-0.73 0.555 1.309
-0.723 0.554 1.31
-0.716 0.553 1.31
-0.71 0.553 1.311
-0.703 0.552 1.311
-0.698 0.553 1.315
-0.691 0.552 1.316
-0.685 0.552 1.318
-0.679 0.552 1.319
-0.671 0.551 1.318
-0.665 0.551 1.32
-0.66 0.551 1.323
-0.654 0.551 1.325
-0.648 0.551 1.327
-0.644 0.553 1.333
-0.638 0.553 1.335
-0.632 0.553 1.337
-0.626 0.552 1.338
-0.62 0.553 1.341
-0.613 0.551 1.339
-0.607 0.552 1.342
-0.601 0.551 1.342
-0.595 0.551 1.344
-0.589 0.551 1.345
-0.583 0.551 1.347
-0.577 0.551 1.349
-0.571 0.551 1.35
-0.565 0.551 1.353
-0.56 0.552 1.356
-0.554 0.552 1.357
-0.547 0.551 1.357
-0.542 0.552 1.36
-0.534 0.55 1.358
-0.527 0.548 1.355
-0.519 0.547 1.352
-0.511 0.545 1.349
-0.502 0.541 1.34
0 0 0
0 0 0
0 0 0
0 0 0
0 0 0
0 0 0
0 0 0
0 0 0
-0.453 0.545 1.364
-0.449 0.548 1.372
-0.443 0.547 1.371
-0.438 0.549 1.377
-0.433 0.55 1.382
-0.428 0.551 1.385
-0.423 0.552 1.389
-0.417 0.552 1.391
-0.411 0.552 1.392
-0.405 0.552 1.391
-0.399 0.552 1.393
-0.393 0.551 1.393
-0.386 0.551 1.392
-0.38 0.55 1.392
-0.374 0.55 1.393
-0.367 0.549 1.391
-0.361 0.549 1.392
-0.356 0.549 1.394
-0.35 0.549 1.395
-0.343 0.549 1.395
-0.338 0.55 1.398
-0.332 0.549 1.398
-0.326 0.55 1.4
-0.321 0.55 1.402
-0.315 0.551 1.406
-0.309 0.551 1.407
-0.303 0.551 1.406
-0.297 0.55 1.406
-0.291 0.55 1.406
-0.285 0.55 1.406
-0.279 0.55 1.408
-0.273 0.551 1.41
-0.267 0.551 1.411
-0.261 0.551 1.412
-0.256 0.551 1.413
-0.249 0.55 1.412
-0.244 0.551 1.414
-0.238 0.551 1.416
-0.232 0.552 1.418
-0.226 0.552 1.419
-0.221 0.553 1.421
-0.214 0.552 1.421
-0.208 0.552 1.42
-0.202 0.551 1.419
-0.196 0.552 1.421
-0.19 0.551 1.421
-0.184 0.552 1.422
-0.179 0.553 1.425
-0.173 0.552 1.425
-0.167 0.552 1.425
-0.161 0.552 1.425
-0.155 0.553 1.428
-0.149 0.552 1.426
-0.143 0.552 1.427
-0.137 0.552 1.426
-0.131 0.552 1.428
-0.125 0.552 1.427
-0.119 0.553 1.431
-0.113 0.554 1.432
-0.107 0.553 1.432
-0.102 0.554 1.434
-0.096 0.554 1.434
-0.089 0.553 1.432
-0.083 0.553 1.432
-0.078 0.555 1.437
-0.072 0.555 1.437
-0.066 0.555 1.437
-0.06 0.557 1.442
-0.054 0.558 1.445
-0.048 0.557 1.443
-0.042 0.556 1.442
-0.036 0.557 1.443
-0.03 0.556 1.441
-0.024 0.557 1.443
-0.018 0.557 1.445
-0.012 0.559 1.449
-0.006 0.559 1.449
0 0.559 1.45
0.006 0.558 1.447
0.012 0.559 1.448
0.018 0.559 1.448
0.024 0.559 1.448
0.03 0.559 1.448
0.036 0.559 1.45
0.042 0.559 1.449
0.048 0.559 1.45
0.054 0.56 1.45
0.06 0.559 1.449
0.066 0.559 1.448
0.072 0.559 1.449
0.079 0.559 1.449
0.085 0.56 1.449
0.091 0.561 1.452
0.097 0.56 1.45
0.103 0.56 1.45
0.109 0.561 1.451
0.115 0.561 1.452
0.121 0.561 1.451
0.127 0.561 1.452
0.133 0.562 1.452
0.139 0.561 1.451
0.145 0.562 1.451
0.152 0.562 1.452
0.158 0.563 1.453
0.164 0.564 1.455
0.17 0.563 1.454
0.176 0.564 1.454
0.183 0.564 1.454
0.189 0.564 1.453
0.195 0.564 1.454
0.201 0.564 1.453
0.207 0.564 1.452
0.213 0.564 1.453
0.219 0.564 1.45
0.225 0.563 1.449
0.231 0.564 1.449
0.237 0.563 1.448
0.243 0.564 1.448
0.25 0.565 1.451
0.256 0.565 1.45
0.263 0.566 1.451
0.269 0.568 1.455
0.276 0.569 1.458
0.283 0.57 1.46
0.289 0.57 1.46
0.296 0.571 1.46
0.301 0.57 1.456
0.307 0.57 1.455
0.314 0.57 1.456
0.32 0.57 1.454
0.327 0.571 1.456
0.333 0.572 1.458
0.34 0.572 1.457
0.346 0.573 1.458
0.353 0.574 1.459
0.359 0.573 1.456
0.364 0.572 1.453
0.37 0.572 1.452
0.377 0.573 1.452
0.385 0.575 1.457
0.392 0.577 1.46
0.4 0.579 1.465
0.406 0.579 1.464
0.412 0.579 1.463
0.418 0.578 1.459
0.424 0.578 1.459
0.431 0.579 1.459
0.438 0.579 1.459
0.445 0.58 1.46
0.452 0.582 1.463
0.459 0.583 1.463
0.465 0.582 1.461
0.472 0.583 1.461
0.477 0.582 1.458
0.484 0.583 1.459
0.49 0.582 1.456
0.497 0.583 1.455
0.503 0.583 1.455
0.511 0.585 1.457
0.516 0.583 1.451
0.522 0.583 1.451
0.529 0.584 1.45
0.535 0.583 1.447
0.542 0.584 1.447
0.547 0.583 1.444
0.551 0.58 1.435
0.546 0.569 1.405
0 0 0
0.505 0.514 1.267
0.498 0.502 1.236
0.498 0.496 1.22
0.502 0.495 1.216
0.509 0.497 1.219
0.515 0.497 1.219
0.524 0.501 1.226
0.534 0.505 1.235
0.542 0.507 1.239
0.552 0.512 1.248
0.565 0.518 1.262
0 0 0
0 0 0
0.587 0.524 1.27
0.593 0.523 1.268
0.599 0.524 1.267
0.606 0.525 1.268
0.618 0.531 1.28
0 0 0
0 0 0
0 0 0
0.67 0.554 1.329
0.676 0.554 1.327
0.68 0.553 1.322
0.684 0.551 1.316
0.693 0.553 1.319
0.699 0.554 1.318
0.708 0.556 1.321
0.718 0.559 1.326
0.729 0.563 1.333
0.739 0.566 1.338
0.752 0.571 1.349
0.765 0.576 1.358
0.774 0.579 1.362
0.783 0.581 1.364
0.791 0.582 1.364
0.796 0.581 1.36
0.806 0.583 1.363
0.818 0.588 1.371
0.828 0.591 1.375
0.839 0.593 1.379
0.852 0.598 1.388
0.861 0.6 1.389
0.871 0.603 1.393
0.883 0.606 1.398
0.892 0.608 1.399
0.9 0.609 1.399
0.908 0.61 1.399
0.915 0.61 1.396
0.924 0.612 1.397
0.932 0.613 1.397
0.942 0.615 1.398
0.951 0.617 1.4
0.96 0.618 1.4
0.965 0.617 1.395
0.974 0.618 1.395
0.982 0.619 1.393
0.99 0.62 1.393
0.997 0.62 1.39
1.006 0.622 1.39
1.018 0.625 1.394
1.026 0.626 1.393
1.035 0.627 1.392
1.042 0.627 1.39
1.049 0.627 1.386
1.054 0.626 1.381
1.06 0.626 1.377
1.07 0.627 1.377
1.079 0.629 1.377
1.091 0.632 1.38
1.1 0.634 1.38
1.112 0.636 1.382
1.116 0.635 1.376
1.124 0.635 1.373
1.13 0.635 1.369
1.139 0.636 1.368
1.143 0.635 1.361
1.154 0.637 1.362
1.164 0.639 1.362
1.172 0.639 1.359
1.179 0.639 1.356
1.189 0.641 1.355
1.2 0.643 1.356
1.207 0.643 1.353
1.216 0.644 1.351
1.225 0.645 1.349
1.233 0.646 1.346
1.241 0.646 1.343
1.248 0.646 1.339
1.255 0.646 1.335
1.266 0.648 1.335
1.275 0.649 1.333
1.283 0.65 1.33
1.295 0.652 1.331
1.307 0.655 1.332
1.316 0.656 1.329
1.326 0.657 1.328
1.335 0.658 1.325
1.345 0.66 1.324
1.358 0.663 1.325
1.363 0.661 1.318
1.376 0.664 1.319
1.385 0.665 1.316
1.393 0.666 1.313
1.403 0.667 1.31
1.418 0.671 1.313
1.423 0.67 1.306
1.436 0.672 1.306
1.447 0.674 1.305
1.455 0.674 1.3
1.465 0.676 1.298
1.478 0.678 1.298
1.486 0.679 1.293
1.492 0.678 1.287
1.506 0.681 1.287
1.516 0.682 1.284
1.527 0.684 1.282
1.539 0.686 1.28
1.549 0.687 1.277
1.561 0.689 1.275
1.571 0.69 1.272
1.578 0.69 1.266
1.59 0.692 1.264
1.603 0.694 1.262
1.609 0.694 1.255
1.617 0.694 1.25
1.631 0.697 1.249
1.641 0.698 1.245
1.654 0.7 1.243
1.665 0.701 1.239
1.675 0.703 1.235
1.687 0.705 1.232
1.701 0.707 1.23
1.707 0.707 1.223
1.725 0.711 1.224
1.745 0.716 1.226
1.755 0.717 1.221
1.774 0.721 1.222
1.795 0.727 1.224
1.798 0.725 1.214
0 0 0
0 0 0
0 0 0
0 0 0
0 0 0
0 0 0
0 0 0
0 0 0
0 0 0
0 0 0
0 0 0
0 0 0
0 0 0
0 0 0
0 0 0
0 0 0
0 0 0
0 0 0
0 0 0
0 0 0
0 0 0
0 0 0
0 0 0
0 0 0
0 0 0
0 0 0
0 0 0
0 0 0
0 0 0
0 0 0
0 0 0
0 0 0
0 0 0
0 0 0
0 0 0
0 0 0
0 0 0
0 0 0
0 0 0
0 0 0
0 0 0
0 0 0
0 0 0
0 0 0
0 0 0
0 0 0
0 0 0
0 0 0
0 0 0
-1.492 0.602 0.981
-1.481 0.601 0.984
-1.476 0.601 0.991
-1.466 0.6 0.994
-1.461 0.6 1.001
-1.454 0.6 1.006
-1.445 0.599 1.01
-1.433 0.596 1.011
-1.426 0.596 1.016
-1.417 0.595 1.02
-1.402 0.592 1.019
-1.398 0.593 1.026
-1.39 0.592 1.03
-1.38 0.59 1.032
-1.369 0.588 1.034
-1.363 0.588 1.039
-1.354 0.587 1.042
-1.345 0.586 1.045
-1.34 0.587 1.051
-1.332 0.586 1.054
-1.327 0.586 1.06
-1.317 0.585 1.062
-1.31 0.584 1.066
-1.298 0.582 1.066
-1.294 0.583 1.072
-1.289 0.583 1.078
-1.282 0.583 1.082
-1.272 0.581 1.083
-1.266 0.581 1.088
-1.258 0.581 1.091
-1.249 0.579 1.093
-1.242 0.579 1.096
-1.234 0.578 1.099
-1.225 0.577 1.101
-1.221 0.578 1.107
-1.211 0.576 1.108
-1.205 0.576 1.112
-1.199 0.576 1.116
-1.194 0.576 1.121
-1.186 0.576 1.124
-1.177 0.574 1.125
-1.171 0.574 1.129
-1.166 0.575 1.134
-1.158 0.574 1.136
-1.147 0.571 1.135
-1.141 0.571 1.139
-1.134 0.571 1.142
-1.127 0.571 1.145
-1.12 0.57 1.148
-1.117 0.572 1.155
-1.11 0.572 1.158
-1.103 0.571 1.16
-1.094 0.569 1.161
-1.086 0.568 1.162
-1.078 0.567 1.164
-1.071 0.567 1.166
-1.063 0.566 1.168
-1.058 0.566 1.172
-1.053 0.567 1.177
-1.045 0.566 1.178
-1.04 0.567 1.183
-1.035 0.567 1.187
-1.027 0.566 1.188
-1.02 0.565 1.19
-1.017 0.567 1.197
-1.009 0.566 1.198
-1.003 0.566 1.201
-0.998 0.567 1.206
-0.991 0.566 1.208
-0.984 0.566 1.21
-0.979 0.566 1.214
-0.973 0.566 1.217
-0.963 0.564 1.216
-0.959 0.565 1.221
-0.95 0.563 1.22
-0.944 0.563 1.223
-0.936 0.562 1.224
-0.932 0.563 1.229
-0.923 0.561 1.228
-0.915 0.56 1.228
-0.904 0.557 1.225
-0.896 0.556 1.225
-0.88 0.55 1.214
0 0 0
0 0 0
0 0 0
0 0 0
0 0 0
0 0 0
0 0 0
-0.844 0.557 1.251
-0.836 0.556 1.251
-0.833 0.558 1.258
-0.829 0.559 1.263
-0.822 0.558 1.263
-0.817 0.558 1.267
-0.812 0.559 1.272
-0.806 0.559 1.274
-0.8 0.559 1.276
-0.794 0.559 1.279
-0.789 0.56 1.283
-0.782 0.559 1.284
-0.775 0.558 1.284
-0.768 0.557 1.284
-0.76 0.556 1.284
-0.753 0.555 1.284
-0.747 0.555 1.286
-0.742 0.556 1.29
-0.737 0.557 1.294
-0.732 0.557 1.297
-0.725 0.557 1.298
-0.719 0.557 1.3
-0.712 0.556 1.3
-0.705 0.555 1.3
-0.699 0.555 1.302
-0.693 0.555 1.304
-0.686 0.554 1.305
-0.68 0.554 1.306
-0.674 0.554 1.308
-0.667 0.553 1.308
-0.661 0.553 1.309
-0.655 0.553 1.312
-0.65 0.554 1.316
-0.644 0.554 1.318
-0.641 0.556 1.325
-0.636 0.557 1.328
-0.629 0.556 1.329
-0.622 0.555 1.328
-0.617 0.555 1.331
-0.609 0.554 1.329
-0.603 0.554 1.331
-0.596 0.553 1.33
-0.591 0.554 1.334
-0.584 0.553 1.334
-0.579 0.553 1.336
-0.573 0.554 1.339
-0.568 0.554 1.341
-0.561 0.553 1.341
-0.556 0.554 1.345
-0.55 0.554 1.346
-0.543 0.553 1.346
-0.538 0.553 1.348
-0.531 0.553 1.349
-0.524 0.551 1.346
-0.516 0.549 1.343
-0.509 0.548 1.342
-0.5 0.544 1.333
0 0 0
0 0 0
0 0 0
0 0 0
0 0 0
0 0 0
0 0 0
0 0 0
-0.45 0.548 1.355
-0.446 0.55 1.362
-0.44 0.549 1.36
-0.435 0.551 1.366
-0.43 0.552 1.37
-0.425 0.552 1.372
-0.419 0.553 1.375
-0.414 0.554 1.379
-0.408 0.554 1.38
-0.402 0.554 1.38
-0.397 0.555 1.384
-0.39 0.554 1.383
-0.384 0.554 1.384
-0.378 0.554 1.385
-0.372 0.553 1.383
-0.365 0.552 1.382
-0.359 0.552 1.383
-0.353 0.551 1.383
-0.348 0.552 1.385
-0.342 0.552 1.386
-0.336 0.553 1.39
-0.331 0.553 1.391
-0.325 0.554 1.393
-0.319 0.554 1.394
-0.314 0.555 1.398
-0.307 0.554 1.397
-0.301 0.553 1.396
-0.295 0.553 1.395
-0.289 0.553 1.396
-0.283 0.552 1.396
-0.277 0.553 1.398
-0.271 0.553 1.399
-0.265 0.552 1.398
-0.26 0.553 1.4
-0.254 0.552 1.4
-0.247 0.552 1.4
-0.242 0.553 1.403
-0.237 0.554 1.407
-0.231 0.555 1.409
-0.225 0.555 1.41
-0.219 0.556 1.412
-0.213 0.555 1.412
-0.207 0.555 1.411
-0.201 0.553 1.408
-0.195 0.554 1.41
-0.189 0.554 1.41
-0.183 0.554 1.411
-0.178 0.555 1.414
-0.172 0.555 1.416
-0.166 0.556 1.417
-0.16 0.555 1.417
-0.154 0.556 1.42
-0.148 0.555 1.418
-0.142 0.555 1.418
-0.136 0.556 1.419
-0.131 0.556 1.421
-0.125 0.556 1.421
-0.119 0.557 1.425
-0.113 0.557 1.424
-0.107 0.556 1.423
-0.101 0.557 1.424
-0.095 0.557 1.425
-0.089 0.557 1.424
-0.083 0.556 1.424
-0.077 0.558 1.429
-0.071 0.558 1.429
-0.066 0.559 1.43
-0.06 0.56 1.434
-0.054 0.562 1.439
-0.048 0.56 1.435
-0.042 0.559 1.433
-0.036 0.56 1.434
-0.03 0.559 1.431
-0.024 0.559 1.431
-0.018 0.56 1.434
-0.012 0.562 1.439
-0.006 0.561 1.437
0 0.562 1.439
0.006 0.56 1.436
0.012 0.561 1.438
0.018 0.561 1.437
0.024 0.562 1.439
0.03 0.561 1.438
0.036 0.562 1.44
0.042 0.563 1.441
0.048 0.563 1.441
0.054 0.563 1.441
0.06 0.563 1.442
0.066 0.564 1.443
0.072 0.564 1.443
0.078 0.564 1.444
0.084 0.563 1.442
0.09 0.564 1.443
0.096 0.563 1.441
0.102 0.564 1.443
0.108 0.563 1.441
0.114 0.564 1.443
0.121 0.564 1.443
0.127 0.565 1.444
0.133 0.565 1.443
0.139 0.565 1.443
0.145 0.565 1.444
0.151 0.566 1.444
0.157 0.566 1.444
0.163 0.567 1.446
0.169 0.567 1.446
0.176 0.567 1.446
0.181 0.567 1.444
0.188 0.567 1.445
0.194 0.567 1.444
0.2 0.567 1.444
0.206 0.567 1.444
0.212 0.568 1.446
0.218 0.567 1.443
0.224 0.567 1.441
0.23 0.567 1.44
0.236 0.567 1.44
0.242 0.567 1.438
0.248 0.567 1.439
0.255 0.569 1.442
0.261 0.569 1.441
0.268 0.57 1.444
0.274 0.571 1.446
0.281 0.572 1.448
0.287 0.573 1.448
0.294 0.574 1.45
0.299 0.572 1.446
0.306 0.573 1.446
0.312 0.573 1.447
0.318 0.573 1.444
0.325 0.574 1.446
0.332 0.575 1.449
0.338 0.575 1.448
0.344 0.576 1.448
0.35 0.576 1.447
0.356 0.575 1.445
0.362 0.575 1.442
0.368 0.574 1.44
0.374 0.575 1.44
0.382 0.577 1.444
0.388 0.577 1.445
0.396 0.579 1.449
0.402 0.58 1.448
0.409 0.58 1.448
0.415 0.58 1.446
0.421 0.581 1.447
0.428 0.581 1.446
0.434 0.581 1.446
0.441 0.582 1.446
0.448 0.583 1.449
0.455 0.584 1.45
0.462 0.584 1.449
0.469 0.586 1.451
0.475 0.585 1.448
0.481 0.585 1.446
0.485 0.583 1.44
0.491 0.583 1.438
0.497 0.582 1.435
0.504 0.583 1.437
0.509 0.582 1.432
0.517 0.583 1.433
0.524 0.584 1.434
0.53 0.584 1.433
0.537 0.585 1.434
0.543 0.584 1.43
0.544 0.579 1.415
0.535 0.563 1.375
0 0 0
0.501 0.516 1.257
0.497 0.506 1.232
0.498 0.502 1.219
0.503 0.502 1.218
0.511 0.504 1.221
0.517 0.505 1.223
0.527 0.509 1.231
0.537 0.513 1.24
0.546 0.517 1.247
0.555 0.52 1.252
0 0 0
0.571 0.524 1.26
0 0 0
0.583 0.525 1.258
0.588 0.525 1.256
0.595 0.526 1.258
0 0 0
0 0 0
0 0 0
0 0 0
0 0 0
0 0 0
0.677 0.561 1.328
0.68 0.559 1.32
0.684 0.557 1.315
0.692 0.559 1.316
0.698 0.559 1.315
0.707 0.561 1.317
0.715 0.563 1.319
0.724 0.565 1.323
0.735 0.569 1.329
0.747 0.574 1.338
0.759 0.578 1.347
0.771 0.583 1.355
0.782 0.586 1.36
0.79 0.587 1.361
0.797 0.588 1.359
0.805 0.59 1.361
0.818 0.594 1.369
0.828 0.596 1.372
0.839 0.6 1.377
0.852 0.605 1.386
0.86 0.606 1.386
0.869 0.608 1.388
0.88 0.611 1.392
0.889 0.612 1.393
0.897 0.613 1.392
0.906 0.615 1.393
0.913 0.616 1.392
0.922 0.617 1.393
0.929 0.617 1.39
0.938 0.619 1.391
0.947 0.62 1.391
0.955 0.622 1.391
0.96 0.621 1.386
0.969 0.622 1.386
0.977 0.623 1.385
0.987 0.625 1.386
0.994 0.625 1.384
1.003 0.627 1.384
1.014 0.629 1.387
1.021 0.629 1.384
1.029 0.63 1.383
1.038 0.631 1.382
1.043 0.631 1.377
1.049 0.63 1.373
1.056 0.63 1.369
1.063 0.63 1.366
1.073 0.632 1.367
1.084 0.635 1.369
1.094 0.637 1.37
1.104 0.639 1.371
1.11 0.638 1.366
1.116 0.638 1.362
1.124 0.638 1.359
1.13 0.638 1.355
1.137 0.638 1.351
1.147 0.639 1.351
1.156 0.641 1.351
1.166 0.642 1.35
1.173 0.643 1.347
1.182 0.644 1.346
1.193 0.646 1.346
1.2 0.646 1.343
1.208 0.647 1.34
1.218 0.648 1.339
1.226 0.649 1.337
1.235 0.65 1.335
1.242 0.65 1.331
1.249 0.65 1.327
1.258 0.651 1.325
1.268 0.653 1.324
1.276 0.653 1.321
1.289 0.657 1.323
1.298 0.657 1.32
1.307 0.658 1.318
1.315 0.659 1.315
1.324 0.66 1.312
1.332 0.66 1.309
1.345 0.663 1.31
1.351 0.663 1.305
1.362 0.665 1.304
1.372 0.666 1.302
1.382 0.668 1.3
1.391 0.668 1.297
1.403 0.671 1.297
1.406 0.669 1.288
1.418 0.671 1.288
1.431 0.674 1.288
1.441 0.675 1.286
1.455 0.679 1.287
1.47 0.682 1.288
1.478 0.682 1.284
1.483 0.681 1.277
1.493 0.683 1.274
1.503 0.684 1.271
1.518 0.687 1.272
1.529 0.689 1.27
1.54 0.69 1.267
1.55 0.692 1.264
1.56 0.693 1.26
1.565 0.692 1.253
1.575 0.693 1.249
1.591 0.696 1.25
1.596 0.696 1.243
1.604 0.696 1.237
1.619 0.699 1.237
1.63 0.701 1.234
1.643 0.703 1.232
1.656 0.705 1.23
1.668 0.707 1.227
1.68 0.709 1.224
1.69 0.71 1.22
1.697 0.71 1.213
1.714 0.714 1.213
1.729 0.717 1.212
1.738 0.717 1.206
1.755 0.721 1.206
1.775 0.727 1.208
1.78 0.725 1.199
0 0 0
0 0 0
0 0 0
0 0 0
0 0 0
0 0 0
0 0 0
0 0 0
0 0 0
0 0 0
0 0 0
0 0 0
0 0 0
0 0 0
0 0 0
0 0 0
0 0 0
0 0 0
0 0 0
0 0 0
0 0 0
0 0 0
0 0 0
0 0 0
0 0 0
0 0 0
0 0 0
0 0 0
0 0 0
0 0 0
0 0 0
0 0 0
0 0 0
0 0 0
0 0 0
0 0 0
0 0 0
0 0 0
0 0 0
0 0 0
0 0 0
0 0 0
0 0 0
0 0 0
0 0 0
0 0 0
0 0 0
0 0 0
0 0 0
0 0 0
-1.474 0.604 0.977
-1.468 0.604 0.983
-1.458 0.603 0.986
-1.453 0.603 0.993
-1.444 0.602 0.997
-1.434 0.601 1
-1.425 0.599 1.003
-1.418 0.599 1.008
-1.409 0.598 1.012
-1.397 0.596 1.013
-1.392 0.596 1.019
-1.384 0.596 1.023
-1.375 0.594 1.026
-1.366 0.593 1.029
-1.359 0.593 1.034
-1.35 0.592 1.037
-1.342 0.591 1.04
-1.336 0.591 1.045
-1.326 0.589 1.047
-1.32 0.589 1.052
-1.31 0.588 1.054
-1.303 0.587 1.058
-1.293 0.586 1.06
-1.288 0.586 1.065
-1.284 0.587 1.072
-1.278 0.587 1.076
-1.268 0.586 1.078
-1.263 0.586 1.083
-1.256 0.586 1.087
-1.248 0.585 1.09
-1.242 0.585 1.094
-1.233 0.584 1.096
-1.224 0.582 1.098
-1.219 0.583 1.103
-1.21 0.582 1.105
-1.201 0.58 1.106
-1.193 0.579 1.109
-1.186 0.579 1.112
-1.175 0.576 1.111
-1.165 0.575 1.112
-1.159 0.575 1.116
-1.155 0.576 1.122
-1.148 0.575 1.125
-1.141 0.574 1.127
-1.136 0.575 1.132
-1.128 0.574 1.134
-1.122 0.574 1.138
-1.115 0.574 1.141
-1.11 0.574 1.146
-1.103 0.574 1.148
-1.096 0.573 1.151
-1.088 0.572 1.153
-1.08 0.571 1.154
-1.073 0.571 1.157
-1.067 0.571 1.16
-1.06 0.57 1.163
-1.055 0.571 1.167
-1.049 0.571 1.171
-1.041 0.57 1.172
-1.036 0.57 1.176
-1.03 0.57 1.18
-1.022 0.569 1.181
-1.016 0.569 1.184
-1.011 0.57 1.189
-1.004 0.569 1.19
-0.997 0.568 1.192
-0.992 0.569 1.197
-0.984 0.568 1.198
-0.978 0.568 1.201
-0.972 0.568 1.204
-0.966 0.568 1.207
-0.958 0.567 1.207
-0.952 0.567 1.211
-0.944 0.566 1.211
-0.939 0.566 1.215
-0.931 0.565 1.216
-0.926 0.566 1.22
-0.918 0.564 1.22
-0.912 0.564 1.222
-0.903 0.562 1.221
-0.896 0.562 1.223
-0.884 0.558 1.217
0 0 0
0 0 0
0 0 0
0 0 0
0 0 0
0 0 0
0 0 0
0 0 0
-0.831 0.558 1.241
-0.829 0.56 1.249
-0.826 0.563 1.257
-0.82 0.563 1.259
-0.814 0.563 1.262
-0.809 0.563 1.265
-0.803 0.563 1.268
-0.796 0.562 1.268
-0.79 0.563 1.271
-0.785 0.563 1.274
-0.778 0.563 1.276
-0.772 0.562 1.277
-0.765 0.561 1.278
-0.758 0.56 1.278
-0.752 0.56 1.28
-0.745 0.56 1.281
-0.739 0.56 1.284
-0.734 0.56 1.287
-0.729 0.561 1.291
-0.721 0.56 1.29
-0.715 0.56 1.292
-0.708 0.559 1.292
-0.702 0.559 1.294
-0.695 0.558 1.294
-0.69 0.558 1.297
-0.684 0.558 1.299
-0.678 0.558 1.301
-0.672 0.558 1.303
-0.664 0.557 1.301
-0.659 0.557 1.304
-0.653 0.557 1.306
-0.648 0.557 1.309
-0.642 0.558 1.311
-0.638 0.56 1.318
-0.633 0.56 1.32
-0.626 0.559 1.321
-0.62 0.559 1.322
-0.614 0.559 1.324
-0.607 0.558 1.323
-0.601 0.558 1.324
-0.594 0.557 1.324
-0.589 0.557 1.327
-0.582 0.556 1.326
-0.576 0.556 1.328
-0.57 0.557 1.33
-0.565 0.557 1.333
-0.559 0.557 1.334
-0.553 0.557 1.337
-0.547 0.557 1.338
-0.541 0.557 1.339
-0.535 0.556 1.339
-0.528 0.556 1.34
-0.522 0.556 1.341
-0.515 0.554 1.339
-0.509 0.554 1.339
-0.502 0.552 1.337
-0.495 0.552 1.337
-0.484 0.546 1.324
0 0 0
0 0 0
0 0 0
0 0 0
0 0 0
0 0 0
-0.45 0.554 1.353
-0.446 0.555 1.358
-0.438 0.554 1.355
-0.433 0.554 1.357
-0.428 0.555 1.362
-0.423 0.556 1.364
-0.417 0.556 1.366
-0.412 0.557 1.37
-0.406 0.557 1.371
-0.4 0.557 1.372
-0.394 0.557 1.374
-0.388 0.557 1.375
-0.382 0.557 1.375
-0.376 0.557 1.376
-0.369 0.555 1.373
-0.363 0.555 1.373
-0.358 0.555 1.375
-0.351 0.554 1.374
-0.346 0.555 1.377
-0.341 0.556 1.38
-0.335 0.557 1.383
-0.33 0.557 1.385
-0.324 0.558 1.387
-0.318 0.557 1.387
-0.312 0.557 1.388
-0.306 0.557 1.387
-0.299 0.556 1.386
-0.293 0.556 1.386
-0.288 0.556 1.389
-0.282 0.556 1.39
-0.276 0.557 1.392
-0.271 0.557 1.393
-0.264 0.556 1.392
-0.258 0.556 1.392
-0.252 0.556 1.392
-0.246 0.555 1.391
-0.241 0.556 1.394
-0.236 0.558 1.399
-0.23 0.558 1.401
-0.224 0.558 1.402
-0.218 0.559 1.404
-0.212 0.558 1.403
-0.206 0.557 1.401
-0.2 0.557 1.4
-0.194 0.557 1.401
-0.188 0.556 1.4
-0.182 0.557 1.402
-0.177 0.558 1.406
-0.171 0.559 1.408
-0.165 0.559 1.409
-0.159 0.559 1.41
-0.154 0.56 1.412
-0.148 0.559 1.41
-0.142 0.559 1.41
-0.136 0.559 1.41
-0.13 0.56 1.413
-0.124 0.559 1.412
-0.118 0.56 1.415
-0.112 0.56 1.414
-0.106 0.559 1.413
-0.1 0.56 1.415
-0.095 0.56 1.416
-0.089 0.559 1.414
-0.083 0.559 1.415
-0.077 0.561 1.419
-0.071 0.56 1.418
-0.065 0.561 1.419
-0.059 0.562 1.422
-0.054 0.563 1.426
-0.047 0.562 1.423
-0.041 0.562 1.422
-0.036 0.561 1.421
-0.03 0.56 1.419
