ply
format ascii 1.0
comment VCGLIB generated
element vertex 1964
property float x
property float y
property float z
element face 0
property list uchar int vertex_indices
end_header
0.837 0.8215495 -0.8922155 
0.844 0.8202173 -0.8940115 
0.851 0.819059 -0.8948227 
0.856 0.8161044 -0.8943018 
0.861 0.81315 -0.8937808 
0.868 0.8110067 -0.8944182 
0.873 0.8080523 -0.8938973 
0.879 0.805909 -0.8945348 
0.887 0.8055618 -0.8965044 
0.894 0.8042297 -0.8983004 
0.901 0.8022601 -0.8979532 
0.908 0.800928 -0.899749 
0.913 0.7969887 -0.8990545 
0.917 0.7932231 -0.8973751 
0.922 0.7894576 -0.8956957 
0.928 0.7873143 -0.8963332 
0.936 0.7859821 -0.8981292 
0.943 0.7846501 -0.8999252 
0.95 0.7825069 -0.9005626 
0.959 0.7819859 -0.9035171 
0.967 0.7806538 -0.905313 
0.97 0.7760771 -0.9024751 
0.976 0.7729489 -0.902939 
0.982 0.7699945 -0.9024181 
0.987 0.7660553 -0.9017235 
0.994 0.7639121 -0.902361 
1.003 0.7633911 -0.9053154 
1.011 0.7610742 -0.9069377 
1.017 0.7581197 -0.9064168 
1.024 0.7558029 -0.9080392 
1.03 0.7528484 -0.9075183 
1.036 0.7489092 -0.9068236 
1.043 0.7465923 -0.908446 
1.05 0.7436379 -0.907925 
1.056 0.7405098 -0.9083888 
1.062 0.7365705 -0.9076942 
1.071 0.7350648 -0.910475 
1.079 0.7329215 -0.9111124 
1.087 0.7306046 -0.9127349 
1.093 0.7274765 -0.9131986 
1.104 0.7267819 -0.917138 
1.11 0.7228427 -0.9164433 
1.12 0.721337 -0.919224 
1.128 0.71902 -0.9208465 
1.134 0.7150809 -0.9201518 
1.143 0.7125903 -0.922759 
1.152 0.7102734 -0.9243813 
1.156 0.705523 -0.9225283 
1.163 0.7014101 -0.9228184 
1.172 0.6990931 -0.9244407 
1.181 0.6966026 -0.9270479 
1.186 0.6918523 -0.9251949 
1.191 0.6869282 -0.9243266 
1.197 0.6820042 -0.9234585 
0 0 0 
0 0 0 
0 0 0 
0 0 0 
0 0 0 
0 0 0 
0 0 0 
0 0 0 
0 0 0 
0 0 0 
0 0 0 
0 0 0 
0 0 0 
0 0 0 
0 0 0 
0 0 0 
0 0 0 
0 0 0 
0 0 0 
0 0 0 
0 0 0 
0 0 0 
0 0 0 
0 0 0 
0 0 0 
0 0 0 
0 0 0 
0 0 0 
0 0 0 
0 0 0 
0 0 0 
0 0 0 
0 0 0 
0 0 0 
0 0 0 
0 0 0 
0 0 0 
0 0 0 
0 0 0 
0 0 0 
0 0 0 
0 0 0 
0 0 0 
0 0 0 
0 0 0 
0 0 0 
0 0 0 
0 0 0 
0 0 0 
0 0 0 
0 0 0 
0 0 0 
0 0 0 
0 0 0 
0 0 0 
0 0 0 
0 0 0 
0 0 0 
0 0 0 
0 0 0 
0 0 0 
0 0 0 
0 0 0 
0 0 0 
0 0 0 
0 0 0 
0 0 0 
0 0 0 
0 0 0 
0 0 0 
0 0 0 
0 0 0 
0 0 0 
0 0 0 
0 0 0 
0 0 0 
0 0 0 
0 0 0 
0 0 0 
0 0 0 
0 0 0 
0 0 0 
0 0 0 
0 0 0 
0 0 0 
0 0 0 
0 0 0 
-1.042 0.6014687 -0.8158385 
-1.035 0.6045967 -0.8153747 
-1.034 0.6109694 -0.8195446 
-1.027 0.6132864 -0.8179224 
-1.022 0.6172256 -0.8186169 
-1.011 0.6179202 -0.8146777 
-1.008 0.6226706 -0.8165307 
-0.999 0.6240026 -0.8147348 
-0.994 0.6279418 -0.8154293 
-0.99 0.6318811 -0.8161239 
-0.984 0.6350092 -0.8156601 
-0.977 0.6371524 -0.8150225 
-0.972 0.6410917 -0.8157171 
-0.965 0.6434086 -0.8140948 
-0.957 0.6447407 -0.8122989 
-0.951 0.6478687 -0.8118351 
-0.946 0.6508232 -0.812356 
-0.941 0.6547624 -0.8130505 
-0.938 0.6593392 -0.8158884 
-0.933 0.6624672 -0.8154246 
-0.929 0.6662328 -0.817104 
-0.922 0.6685498 -0.8154815 
-0.917 0.6715041 -0.8160025 
-0.908 0.6720251 -0.8130481 
-0.903 0.6749795 -0.8135691 
-0.897 0.6771228 -0.8129315 
-0.89 0.6792661 -0.812294 
-0.885 0.6822205 -0.812815 
-0.882 0.6869709 -0.8146681 
-0.877 0.6899253 -0.815189 
-0.872 0.6928797 -0.8157099 
-0.869 0.6966453 -0.8173894 
-0.864 0.6997733 -0.8169255 
-0.86 0.703539 -0.8186049 
-0.854 0.7056823 -0.8179674 
-0.847 0.7068406 -0.8171562 
-0.84 0.7081727 -0.8153603 
-0.834 0.7103161 -0.8147228 
-0.829 0.7122856 -0.81507 
-0.824 0.7152401 -0.815591 
-0.819 0.7181944 -0.8161119 
-0.814 0.7203378 -0.8154744 
-0.809 0.7232922 -0.8159953 
-0.803 0.7244506 -0.8151842 
-0.796 0.7257828 -0.8133882 
-0.793 0.7295483 -0.8150675 
-0.787 0.7315179 -0.8154149 
-0.783 0.7344723 -0.8159359 
-0.776 0.7356308 -0.8151248 
-0.772 0.7385853 -0.8156456 
-0.767 0.7405549 -0.815993 
-0.76 0.7409021 -0.8140233 
-0.755 0.7438565 -0.8145443 
-0.749 0.745015 -0.8137331 
-0.744 0.7471583 -0.8130956 
-0.74 0.7499391 -0.8146014 
-0.736 0.7537047 -0.8162807 
-0.732 0.7566592 -0.8168017 
-0.728 0.7594398 -0.8183075 
-0.722 0.7615831 -0.8176699 
-0.717 0.7627416 -0.8168588 
-0.711 0.7647112 -0.8172061 
-0.705 0.7650584 -0.8152365 
-0.701 0.7678392 -0.8167422 
-0.695 0.7689977 -0.8159311 
-0.691 0.7719522 -0.816452 
-0.686 0.7739218 -0.8167993 
-0.682 0.7767025 -0.8183051 
-0.676 0.7778609 -0.8174939 
-0.671 0.7798306 -0.8178413 
-0.667 0.782785 -0.8183622 
-0.661 0.7839435 -0.817551 
-0.656 0.7851019 -0.8167398 
-0.652 0.7878826 -0.8182456 
-0.647 0.7898524 -0.8185929 
-0.641 0.7910108 -0.8177817 
-0.637 0.7929803 -0.8181289 
-0.631 0.7941388 -0.8173178 
-0.626 0.7951236 -0.8174915 
-0.621 0.7970933 -0.8178388 
-0.616 0.7982517 -0.8170276 
-0.612 0.8020173 -0.818707 
-0.608 0.8047981 -0.8202127 
-0.603 0.8059565 -0.8194016 
-0.598 0.8069413 -0.8195753 
-0.592 0.8080999 -0.8187641 
-0.586 0.8074623 -0.8166208 
-0.581 0.8084472 -0.8167945 
-0.576 0.8104168 -0.8171418 
-0.572 0.8123864 -0.817489 
-0.567 0.814356 -0.8178364 
-0.563 0.8171368 -0.8193421 
-0.558 0.8182952 -0.8185309 
-0.554 0.8210759 -0.8200368 
-0.549 0.8220607 -0.8202104 
-0.544 0.8232192 -0.8193992 
-0.539 0.8251888 -0.8197465 
-0.535 0.8269848 -0.8210787 
-0.531 0.8299392 -0.8215996 
-0.526 0.8317353 -0.8229317 
-0.521 0.8328936 -0.8221205 
-0.516 0.8330674 -0.8211357 
-0.511 0.8340522 -0.8213093 
-0.505 0.8342258 -0.8203245 
-0.501 0.8361953 -0.8206718 
-0.496 0.8381649 -0.8210191 
-0.491 0.8391497 -0.8211927 
-0.486 0.8403083 -0.8203817 
-0.482 0.8421042 -0.8217137 
-0.477 0.8440738 -0.822061 
-0.472 0.8442475 -0.8210763 
-0.468 0.8460435 -0.8224083 
-0.462 0.846217 -0.8214235 
-0.457 0.8473756 -0.8206124 
-0.453 0.8491715 -0.8219445 
-0.449 0.8511411 -0.8222917 
-0.444 0.8521259 -0.8224654 
-0.439 0.8531107 -0.822639 
-0.434 0.8532844 -0.8216543 
-0.428 0.853458 -0.8206695 
-0.423 0.8528206 -0.8185261 
-0.419 0.8564125 -0.8211905 
-0.414 0.8565861 -0.8202056 
-0.41 0.859367 -0.8217114 
-0.406 0.8611629 -0.8230435 
-0.401 0.8613365 -0.8220587 
-0.396 0.8615102 -0.8210738 
-0.39 0.8616838 -0.820089 
-0.386 0.8626686 -0.8202627 
-0.381 0.8644646 -0.8215947 
-0.377 0.8672453 -0.8231006 
-0.373 0.8690414 -0.8244327 
-0.368 0.8700262 -0.8246064 
-0.364 0.871011 -0.8247799 
-0.359 0.8721693 -0.8239688 
-0.354 0.8713583 -0.8228103 
-0.349 0.8731542 -0.8241425 
-0.344 0.8733279 -0.8231576 
-0.339 0.8735015 -0.8221728 
-0.335 0.8752974 -0.8235048 
-0.331 0.8770934 -0.8248371 
-0.326 0.8780783 -0.8250108 
-0.321 0.878252 -0.8240259 
-0.316 0.8792367 -0.8241994 
-0.312 0.8802215 -0.8243731 
-0.307 0.8812063 -0.8245468 
-0.302 0.8821911 -0.8247204 
-0.298 0.8821911 -0.8247204 
-0.293 0.8823647 -0.8237356 
-0.288 0.8833497 -0.8239093 
-0.283 0.8833497 -0.8239093 
-0.279 0.8843344 -0.824083 
-0.274 0.8853192 -0.8242565 
-0.27 0.8881 -0.8257623 
-0.265 0.8881 -0.8257623 
-0.26 0.8882737 -0.8247775 
-0.256 0.8892586 -0.8249512 
-0.251 0.8892586 -0.8249512 
-0.246 0.8894322 -0.8239664 
-0.241 0.8902432 -0.8251248 
-0.237 0.8922129 -0.8254721 
-0.232 0.8930241 -0.8266305 
-0.228 0.8940088 -0.8268042 
-0.223 0.8949935 -0.8269778 
-0.219 0.8967896 -0.82831 
-0.215 0.8985857 -0.8296422 
-0.21 0.8987592 -0.8286573 
-0.205 0.8995703 -0.8298157 
-0.2 0.899744 -0.828831 
-0.196 0.9007288 -0.8290046 
-0.191 0.9007288 -0.8290046 
-0.186 0.9007288 -0.8290046 
-0.182 0.9017136 -0.8291782 
-0.177 0.9026984 -0.8293519 
-0.173 0.9035097 -0.8305104 
-0.168 0.9036832 -0.8295256 
-0.163 0.9054792 -0.8308577 
-0.159 0.9054792 -0.8308577 
-0.154 0.9054792 -0.8308577 
-0.149 0.906464 -0.8310313 
-0.145 0.90826 -0.8323634 
-0.14 0.90826 -0.8323634 
-0.136 0.9100559 -0.8336955 
-0.131 0.9102296 -0.8327107 
-0.126 0.9110407 -0.8338691 
-0.121 0.9102296 -0.8327107 
-0.117 0.9112144 -0.8328843 
-0.112 0.9112144 -0.8328843 
-0.108 0.9120256 -0.8340428 
-0.103 0.9112144 -0.8328843 
-0.098 0.9121991 -0.833058 
-0.094 0.9130105 -0.8342165 
-0.089 0.9139951 -0.83439 
-0.084 0.9139951 -0.83439 
-0.08 0.91498 -0.8345637 
-0.075 0.91498 -0.8345637 
-0.07 0.9139951 -0.83439 
-0.065 0.9141688 -0.8334053 
-0.061 0.9141688 -0.8334053 
-0.056 0.91498 -0.8345637 
-0.051 0.91498 -0.8345637 
-0.047 0.9141688 -0.8334053 
-0.042 0.91498 -0.8345637 
-0.037 0.916776 -0.8358958 
-0.033 0.9177608 -0.8360695 
-0.028 0.919383 -0.8383864 
-0.024 0.9211792 -0.8397185 
-0.019 0.9195567 -0.8374016 
-0.014 0.9195567 -0.8374016 
-0.009 0.9195567 -0.8374016 
-0.005 0.9195567 -0.8374016 
0 0.9195567 -0.8374016 
0.005 0.9211792 -0.8397185 
0.009 0.9211792 -0.8397185 
0.014 0.920368 -0.83856 
0.019 0.9195567 -0.8374016 
0.024 0.9221638 -0.8398921 
0.028 0.9211792 -0.8397185 
0.033 0.9229749 -0.8410505 
0.038 0.9229749 -0.8410505 
0.042 0.9237861 -0.8422091 
0.047 0.9229749 -0.8410505 
0.052 0.9211792 -0.8397185 
0.056 0.9201944 -0.8395448 
0.061 0.9185718 -0.8372279 
0.066 0.919383 -0.8383864 
0.07 0.9183983 -0.8382127 
0.075 0.9210054 -0.8407032 
0.08 0.9219903 -0.8408769 
0.085 0.9236125 -0.8431939 
0.09 0.9218166 -0.8418618 
0.095 0.9226278 -0.8430203 
0.099 0.9226278 -0.8430203 
0.104 0.9234388 -0.8441787 
0.109 0.9244237 -0.8443524 
0.114 0.9242501 -0.8453372 
0.118 0.9224541 -0.844005 
0.123 0.921643 -0.8428466 
0.128 0.919847 -0.8415145 
0.132 0.919847 -0.8415145 
0.137 0.9214692 -0.8438314 
0.142 0.9214692 -0.8438314 
0.147 0.9204844 -0.8436577 
0.152 0.9204844 -0.8436577 
0.156 0.9204844 -0.8436577 
0.161 0.9194996 -0.843484 
0.166 0.921122 -0.845801 
0.171 0.921122 -0.845801 
0.176 0.921122 -0.845801 
0.181 0.9209482 -0.8467858 
0.186 0.9209482 -0.8467858 
0.19 0.9209482 -0.8467858 
0.195 0.9217594 -0.8479443 
0.2 0.9207747 -0.8477706 
0.205 0.9207747 -0.8477706 
0.21 0.9197899 -0.847597 
0.215 0.9196163 -0.8485818 
0.219 0.9196163 -0.8485818 
0.224 0.9196163 -0.8485818 
0.229 0.9194425 -0.8495666 
0.234 0.9194425 -0.8495666 
0.239 0.9192689 -0.8505514 
0.244 0.9182841 -0.8503777 
0.249 0.9174729 -0.8492193 
0.253 0.9164881 -0.8490456 
0.259 0.9181106 -0.8513626 
0.264 0.9179369 -0.8523474 
0.269 0.9179369 -0.8523474 
0.274 0.9169519 -0.8521737 
0.278 0.9159671 -0.852 
0.283 0.9141712 -0.850668 
0.288 0.9131866 -0.8504944 
0.293 0.9130128 -0.8514791 
0.298 0.9148088 -0.8528112 
0.304 0.9154462 -0.8549545 
0.309 0.9162574 -0.8561129 
0.314 0.9152726 -0.8559393 
0.319 0.9152726 -0.8559393 
0.324 0.915099 -0.8569241 
0.328 0.913303 -0.855592 
0.333 0.9123182 -0.8554183 
0.338 0.9121447 -0.8564031 
0.344 0.9119709 -0.857388 
0.35 0.914578 -0.8598785 
0.355 0.9144043 -0.8608633 
0.36 0.9142307 -0.8618481 
0.365 0.9140571 -0.8628329 
0.37 0.9122611 -0.8615009 
0.375 0.9104651 -0.8601687 
0.38 0.9094803 -0.8599951 
0.384 0.908322 -0.8608062 
0.389 0.9065259 -0.8594741 
0.394 0.90473 -0.858142 
0.399 0.9045562 -0.8591268 
0.405 0.9051939 -0.8612701 
0.41 0.9050202 -0.8622549 
0.415 0.9050202 -0.8622549 
0.421 0.9048465 -0.8632397 
0.426 0.9038616 -0.8630661 
0.43 0.9018921 -0.8627188 
0.435 0.9009073 -0.8625451 
0.44 0.8999224 -0.8623714 
0.445 0.898764 -0.8631827 
0.451 0.8985904 -0.8641675 
0.456 0.8976056 -0.8639938 
0.461 0.8966206 -0.8638201 
0.466 0.8946511 -0.8634728 
0.471 0.8944775 -0.8644576 
0.476 0.8934927 -0.864284 
0.482 0.8925079 -0.8641104 
0.487 0.8913494 -0.8649216 
0.491 0.8895535 -0.8635894 
0.497 0.8893799 -0.8645743 
0.502 0.8882213 -0.8653854 
0.508 0.8880476 -0.8663702 
0.513 0.8862517 -0.8650381 
0.519 0.8868893 -0.8671813 
0.524 0.8857307 -0.8679924 
0.53 0.8855571 -0.8689773 
0.535 0.8845722 -0.8688036 
0.541 0.8843987 -0.8697885 
0.546 0.8832402 -0.8705997 
0.552 0.8830667 -0.8715845 
0.558 0.8820817 -0.8714108 
0.562 0.8791273 -0.8708898 
0.567 0.8781426 -0.8707162 
0.572 0.8761729 -0.8703689 
0.579 0.8768105 -0.8725122 
0.584 0.8748409 -0.8721648 
0.59 0.8754784 -0.8743081 
0.596 0.8744935 -0.8741344 
0.601 0.8733351 -0.8749456 
0.606 0.8705542 -0.8734399 
0.611 0.8685848 -0.8730925 
0.616 0.8666151 -0.8727453 
0.622 0.8662677 -0.8747149 
0.627 0.8642982 -0.8743677 
0.634 0.8649355 -0.8765109 
0.639 0.8629659 -0.8761636 
0.644 0.8619812 -0.8759899 
0.65 0.8608228 -0.8768011 
0.655 0.8588532 -0.8764538 
0.661 0.8576947 -0.877265 
0.667 0.8565363 -0.8780761 
0.674 0.8571737 -0.8802193 
0.68 0.8560153 -0.8810305 
0.687 0.8566529 -0.8831738 
0.692 0.8536984 -0.8826529 
0.698 0.85254 -0.883464 
0.703 0.8505703 -0.8831167 
0.708 0.8477895 -0.881611 
0.714 0.8466311 -0.8824221 
0.719 0.8446615 -0.8820748 
0.725 0.8435031 -0.882886 
0.73 0.8413597 -0.8835235 
0.737 0.8402013 -0.8843347 
0.741 0.8374205 -0.8828289 
0.748 0.8370731 -0.8847985 
0.755 0.8367259 -0.8867681 
0.76 0.8337715 -0.8862472 
0.766 0.832613 -0.8870584 
0.772 0.8306434 -0.886711 
0.776 0.8268779 -0.8850316 
0.781 0.8239233 -0.8845106 
0.786 0.8219538 -0.8841634 
0.792 0.8198105 -0.8848009 
0.798 0.8186521 -0.8856121 
0.807 0.8191159 -0.8887401 
0.813 0.8179574 -0.8895513 
0.821 0.8176103 -0.8915209 
0.828 0.8162781 -0.8933169 
0.833 0.8143085 -0.8929696 
0.84 0.8129764 -0.8947656 
0.846 0.8110067 -0.8944182 
0.852 0.8088635 -0.8950558 
0.857 0.805909 -0.8945348 
0.864 0.8037658 -0.8951724 
0.869 0.8008115 -0.8946514 
0.876 0.7996529 -0.8954625 
0.884 0.799132 -0.898417 
0.89 0.7971623 -0.8980697 
0.896 0.7950191 -0.8987072 
0.903 0.7928758 -0.8993447 
0.908 0.7899215 -0.8988239 
0.913 0.7859821 -0.8981292 
0.918 0.7830278 -0.8976083 
0.924 0.7800733 -0.8970873 
0.931 0.7787412 -0.8988832 
0.938 0.776598 -0.8995208 
0.943 0.7736435 -0.8989998 
0.951 0.7723114 -0.9007958 
0.96 0.7717904 -0.9037502 
0.964 0.7670401 -0.9018972 
0.971 0.7648969 -0.9025347 
0.976 0.7619424 -0.9020138 
0.982 0.7588143 -0.9024776 
0.988 0.75586 -0.9019567 
0.998 0.755339 -0.9049111 
1.005 0.7530221 -0.9065334 
1.011 0.7500677 -0.9060124 
1.018 0.7477508 -0.9076347 
1.025 0.7447963 -0.9071138 
1.031 0.7416683 -0.9075777 
1.037 0.7385402 -0.9080415 
1.044 0.7355857 -0.9075205 
1.05 0.7324578 -0.9079845 
1.055 0.7285184 -0.9072899 
1.064 0.7270127 -0.9100706 
1.073 0.7256806 -0.9118666 
1.081 0.7233636 -0.9134889 
1.09 0.7210468 -0.9151112 
1.096 0.7179186 -0.9155751 
1.103 0.7147906 -0.916039 
1.111 0.7116625 -0.9165027 
1.118 0.7085345 -0.9169667 
1.124 0.7044216 -0.917257 
1.134 0.7029158 -0.9200376 
1.14 0.6989766 -0.9193431 
1.146 0.6950373 -0.9186485 
1.153 0.6917357 -0.9200972 
1.16 0.6877965 -0.9194025 
1.169 0.6853058 -0.9220097 
1.178 0.682989 -0.923632 
1.183 0.6780649 -0.9227638 
0 0 0 
0 0 0 
0 0 0 
0 0 0 
0 0 0 
0 0 0 
0 0 0 
0 0 0 
0 0 0 
0 0 0 
0 0 0 
0 0 0 
0 0 0 
0 0 0 
0 0 0 
0 0 0 
0 0 0 
0 0 0 
0 0 0 
0 0 0 
0 0 0 
0 0 0 
0 0 0 
0 0 0 
0 0 0 
0 0 0 
0 0 0 
0 0 0 
0 0 0 
0 0 0 
0 0 0 
0 0 0 
0 0 0 
0 0 0 
0 0 0 
0 0 0 
0 0 0 
0 0 0 
0 0 0 
0 0 0 
0 0 0 
0 0 0 
0 0 0 
0 0 0 
0 0 0 
0 0 0 
0 0 0 
0 0 0 
0 0 0 
0 0 0 
0 0 0 
0 0 0 
0 0 0 
0 0 0 
0 0 0 
0 0 0 
0 0 0 
0 0 0 
0 0 0 
0 0 0 
0 0 0 
0 0 0 
0 0 0 
0 0 0 
0 0 0 
0 0 0 
0 0 0 
0 0 0 
0 0 0 
0 0 0 
0 0 0 
0 0 0 
0 0 0 
0 0 0 
0 0 0 
0 0 0 
0 0 0 
0 0 0 
0 0 0 
0 0 0 
0 0 0 
0 0 0 
0 0 0 
0 0 0 
0 0 0 
0 0 0 
0 0 0 
0 0 0 
0 0 0 
-1.042 0.6048298 -0.82557 
-1.034 0.6071467 -0.8239477 
-1.024 0.6078414 -0.8200085 
-1.017 0.6109694 -0.8195446 
-1.01 0.6132864 -0.8179224 
-1.006 0.6180367 -0.8197753 
-0.999 0.6203536 -0.818153 
-0.994 0.624293 -0.8188477 
-0.989 0.6280584 -0.820527 
-0.983 0.6311865 -0.8200632 
-0.977 0.6343146 -0.8195993 
-0.972 0.6374426 -0.8191354 
-0.965 0.639586 -0.8184979 
-0.956 0.6409181 -0.816702 
-0.949 0.6432349 -0.8150796 
-0.944 0.6461893 -0.8156005 
-0.938 0.6493174 -0.8151368 
-0.935 0.6540678 -0.8169897 
-0.931 0.6578335 -0.8186691 
-0.927 0.6617726 -0.8193637 
-0.922 0.664727 -0.8198846 
-0.915 0.6668704 -0.8192472 
-0.909 0.6690136 -0.8186097 
-0.903 0.6721417 -0.8181458 
-0.897 0.6742849 -0.8175083 
-0.891 0.6764282 -0.8168708 
-0.886 0.6793826 -0.8173918 
-0.881 0.682337 -0.8179127 
-0.875 0.6844803 -0.8172752 
-0.87 0.6874347 -0.8177961 
-0.866 0.6913739 -0.8184907 
-0.861 0.6943284 -0.8190117 
-0.857 0.698094 -0.8206911 
-0.851 0.7002373 -0.8200536 
-0.844 0.7015694 -0.8182576 
-0.838 0.7027278 -0.8174465 
-0.832 0.7048711 -0.8168089 
-0.826 0.7070143 -0.8161714 
-0.82 0.7089839 -0.8165187 
-0.816 0.7119384 -0.8170396 
-0.811 0.7148927 -0.8175606 
-0.807 0.7178472 -0.8180815 
-0.8 0.7191793 -0.8162856 
-0.794 0.7203378 -0.8154744 
-0.788 0.722481 -0.8148369 
-0.783 0.7244506 -0.8151842 
-0.777 0.7265939 -0.8145467 
-0.773 0.7293747 -0.8160524 
-0.768 0.7315179 -0.8154149 
-0.764 0.7352836 -0.8170943 
-0.758 0.736442 -0.8162831 
-0.752 0.7376004 -0.815472 
-0.747 0.7397437 -0.8148345 
-0.742 0.7417133 -0.8151819 
-0.737 0.7446677 -0.8157028 
-0.733 0.7474486 -0.8172085 
-0.729 0.7504029 -0.8177295 
-0.725 0.7541685 -0.8194088 
-0.72 0.7561382 -0.8197561 
-0.714 0.7572966 -0.8189449 
-0.709 0.7592661 -0.8192923 
-0.703 0.7596135 -0.8173226 
-0.699 0.7625679 -0.8178436 
-0.693 0.7637264 -0.8170325 
-0.689 0.7665072 -0.8185382 
-0.683 0.7676656 -0.817727 
-0.68 0.7714313 -0.8194064 
-0.673 0.7716049 -0.8184216 
-0.669 0.7745593 -0.8189425 
-0.664 0.7765288 -0.8192899 
-0.659 0.7776873 -0.8184787 
-0.654 0.779657 -0.8188261 
-0.65 0.7824376 -0.8203317 
-0.644 0.7835962 -0.8195206 
-0.638 0.7839435 -0.817551 
-0.633 0.7859131 -0.8178983 
-0.628 0.7868979 -0.818072 
-0.623 0.7880563 -0.8172607 
-0.618 0.7900259 -0.817608 
-0.613 0.7911845 -0.8167969 
-0.609 0.7947763 -0.8194611 
-0.605 0.7977307 -0.8199822 
-0.599 0.7979044 -0.8189972 
-0.594 0.7990629 -0.818186 
-0.59 0.8018436 -0.8196918 
-0.584 0.8012062 -0.8175486 
-0.578 0.8023646 -0.8167374 
-0.574 0.8041606 -0.8180696 
-0.569 0.8061303 -0.8184168 
-0.565 0.8080999 -0.8187641 
-0.56 0.8100694 -0.8191115 
-0.556 0.8128502 -0.8206171 
-0.552 0.8148199 -0.8209645 
-0.547 0.8167895 -0.8213117 
-0.542 0.8177742 -0.8214854 
-0.537 0.8189327 -0.8206742 
-0.532 0.8199176 -0.8208479 
-0.527 0.8218871 -0.8211952 
-0.522 0.822872 -0.8213689 
-0.517 0.8240304 -0.8205577 
-0.512 0.8250152 -0.8207314 
-0.507 0.8261736 -0.8199202 
-0.503 0.8271585 -0.8200938 
-0.498 0.8283169 -0.8192827 
-0.493 0.8301129 -0.8206148 
-0.488 0.8312713 -0.8198036 
-0.484 0.8330674 -0.8211357 
-0.479 0.835037 -0.821483 
-0.475 0.8360217 -0.8216566 
-0.47 0.8371801 -0.8208455 
-0.465 0.8381649 -0.8210191 
-0.46 0.8391497 -0.8211927 
-0.455 0.8401346 -0.8213664 
-0.451 0.8421042 -0.8217137 
-0.446 0.8440738 -0.822061 
-0.442 0.8450586 -0.8222346 
-0.437 0.8468546 -0.8235668 
-0.432 0.8470283 -0.822582 
-0.427 0.8472019 -0.8215972 
-0.422 0.8473756 -0.8206124 
-0.417 0.8483603 -0.820786 
-0.412 0.8503301 -0.8211334 
-0.408 0.8521259 -0.8224654 
-0.403 0.8522997 -0.8214807 
-0.398 0.8532844 -0.8216543 
-0.393 0.8526468 -0.8195109 
-0.388 0.8536316 -0.8196846 
-0.384 0.8554276 -0.8210168 
-0.379 0.8573971 -0.821364 
-0.376 0.8601781 -0.8228698 
-0.371 0.8611629 -0.8230435 
-0.367 0.8637699 -0.825534 
-0.362 0.8647548 -0.8257077 
-0.357 0.8641173 -0.8235644 
-0.353 0.8659133 -0.8248965 
-0.347 0.8652757 -0.8227533 
-0.342 0.8652757 -0.8227533 
-0.337 0.8654494 -0.8217683 
-0.333 0.8672453 -0.8231006 
-0.329 0.869215 -0.8234479 
-0.324 0.8701998 -0.8236215 
-0.319 0.8701998 -0.8236215 
-0.314 0.8711846 -0.8237952 
-0.31 0.8721693 -0.8239688 
-0.306 0.8739653 -0.8253009 
-0.301 0.874139 -0.8243161 
-0.296 0.875935 -0.8256482 
-0.291 0.8743126 -0.8233312 
-0.286 0.8752974 -0.8235048 
-0.282 0.8762823 -0.8236786 
-0.277 0.877267 -0.8238522 
-0.273 0.878252 -0.8240259 
-0.269 0.880859 -0.8265164 
-0.264 0.8810326 -0.8255317 
-0.259 0.8802215 -0.8243731 
-0.254 0.8812063 -0.8245468 
-0.249 0.8821911 -0.8247204 
-0.245 0.8821911 -0.8247204 
-0.24 0.8823647 -0.8237356 
-0.235 0.8833497 -0.8239093 
-0.231 0.8851455 -0.8252413 
-0.226 0.8861303 -0.825415 
-0.222 0.8879263 -0.8267472 
-0.218 0.8897223 -0.8280792 
-0.213 0.8915181 -0.8294113 
-0.209 0.8915181 -0.8294113 
-0.204 0.8916918 -0.8284266 
-0.199 0.892503 -0.829585 
-0.195 0.8926768 -0.8286003 
-0.19 0.8936616 -0.8287739 
-0.186 0.8944727 -0.8299323 
-0.181 0.8946464 -0.8289475 
-0.176 0.8946464 -0.8289475 
-0.171 0.8956312 -0.8291212 
-0.167 0.8956312 -0.8291212 
-0.162 0.8966159 -0.8292948 
-0.158 0.8966159 -0.8292948 
-0.153 0.8984119 -0.8306268 
-0.148 0.8984119 -0.8306268 
-0.144 0.9002079 -0.8319589 
-0.139 0.9003814 -0.8309742 
-0.135 0.9020038 -0.8332911 
-0.13 0.9021774 -0.8323063 
-0.125 0.9021774 -0.8323063 
-0.121 0.9021774 -0.8323063 
-0.116 0.9039736 -0.8336384 
-0.112 0.9039736 -0.8336384 
-0.107 0.9049584 -0.833812 
-0.102 0.9049584 -0.833812 
-0.098 0.905943 -0.8339857 
-0.093 0.905943 -0.8339857 
-0.089 0.907739 -0.8353179 
-0.084 0.9069279 -0.8341593 
-0.079 0.9069279 -0.8341593 
-0.075 0.907739 -0.8353179 
-0.07 0.907739 -0.8353179 
-0.065 0.9069279 -0.8341593 
-0.06 0.9069279 -0.8341593 
-0.056 0.9079128 -0.834333 
-0.051 0.9079128 -0.834333 
-0.046 0.9071015 -0.8331745 
-0.042 0.9079128 -0.834333 
-0.037 0.9097087 -0.8356651 
-0.033 0.9115047 -0.8369972 
-0.028 0.9123158 -0.8381556 
-0.023 0.9141117 -0.8394877 
-0.019 0.9131268 -0.839314 
-0.014 0.9123158 -0.8381556 
-0.009 0.9123158 -0.8381556 
-0.005 0.9115047 -0.8369972 
0 0.9123158 -0.8381556 
0.005 0.9141117 -0.8394877 
0.009 0.9141117 -0.8394877 
0.014 0.9141117 -0.8394877 
0.019 0.9131268 -0.839314 
0.023 0.9131268 -0.839314 
0.028 0.9131268 -0.839314 
0.033 0.9149229 -0.8406463 
0.038 0.9157341 -0.8418047 
0.042 0.9157341 -0.8418047 
0.047 0.9157341 -0.8418047 
0.052 0.9139381 -0.8404726 
0.056 0.9139381 -0.8404726 
0.061 0.9131268 -0.839314 
0.066 0.9139381 -0.8404726 
0.07 0.9131268 -0.839314 
0.075 0.9147493 -0.8416311 
0.08 0.9155604 -0.8427895 
0.085 0.9165452 -0.8429631 
0.089 0.9155604 -0.8427895 
0.094 0.9163716 -0.8439479 
0.099 0.9155604 -0.8427895 
0.104 0.9153867 -0.8437743 
0.108 0.9163716 -0.8439479 
0.113 0.9171827 -0.8451064 
0.118 0.9145756 -0.8426158 
0.122 0.914402 -0.8436006 
0.127 0.914402 -0.8436006 
0.132 0.9134172 -0.843427 
0.137 0.914402 -0.8436006 
0.142 0.9152132 -0.8447591 
0.146 0.9150395 -0.8457439 
0.151 0.9150395 -0.8457439 
0.156 0.9150395 -0.8457439 
0.161 0.9140546 -0.8455703 
0.166 0.9148659 -0.8467287 
0.17 0.9148659 -0.8467287 
0.175 0.9156771 -0.8478872 
0.18 0.9146922 -0.8477135 
0.185 0.9146922 -0.8477135 
0.19 0.9145185 -0.8486984 
0.194 0.9137074 -0.8475399 
0.199 0.9145185 -0.8486984 
0.204 0.9143448 -0.8496832 
0.209 0.9143448 -0.8496832 
0.214 0.9143448 -0.8496832 
0.219 0.9141712 -0.850668 
0.224 0.9131866 -0.8504944 
0.229 0.9139976 -0.8516527 
0.233 0.9130128 -0.8514791 
0.238 0.9130128 -0.8514791 
0.243 0.9112167 -0.850147 
0.248 0.911043 -0.8511318 
0.253 0.911043 -0.8511318 
0.257 0.9100584 -0.8509582 
0.263 0.9108694 -0.8521166 
0.268 0.9106959 -0.8531014 
0.272 0.9088999 -0.8517693 
0.277 0.9079151 -0.8515956 
0.281 0.9069303 -0.851422 
0.286 0.9069303 -0.851422 
0.292 0.9085525 -0.8537389 
0.298 0.9101749 -0.8560559 
0.303 0.9109861 -0.8572143 
0.308 0.9108125 -0.8581991 
0.313 0.9098275 -0.8580254 
0.318 0.9088429 -0.8578519 
0.323 0.9088429 -0.8578519 
0.328 0.907858 -0.8576782 
0.332 0.9058884 -0.8573309 
0.337 0.9058884 -0.8573309 
0.343 0.9065259 -0.8594741 
0.348 0.907337 -0.8606325 
0.354 0.9081483 -0.8617911 
0.359 0.9087856 -0.8639343 
0.364 0.9087856 -0.8639343 
0.369 0.906005 -0.8624285 
0.373 0.9032243 -0.8609228 
0.378 0.9022393 -0.8607491 
0.382 0.8994586 -0.8592434 
0.387 0.899285 -0.8602282 
0.392 0.8974889 -0.8588961 
0.397 0.8983002 -0.8600546 
0.403 0.8981265 -0.8610393 
0.408 0.8979529 -0.8620242 
0.414 0.8985904 -0.8641675 
0.419 0.8976056 -0.8639938 
0.424 0.8966206 -0.8638201 
0.429 0.8956358 -0.8636465 
0.433 0.8936663 -0.8632993 
0.438 0.8926815 -0.8631256 
0.444 0.8925079 -0.8641104 
0.449 0.8923342 -0.8650953 
0.454 0.8905382 -0.8637631 
0.459 0.8903646 -0.8647479 
0.464 0.888395 -0.8644006 
0.47 0.8882213 -0.8653854 
0.475 0.8872365 -0.8652117 
0.479 0.8852668 -0.8648645 
0.484 0.8842821 -0.8646908 
0.489 0.8823125 -0.8643435 
0.495 0.882139 -0.8653283 
0.5 0.8811541 -0.8651546 
0.506 0.8809804 -0.8661395 
0.511 0.8808067 -0.8671242 
0.516 0.8796481 -0.8679354 
0.522 0.8786635 -0.8677617 
0.526 0.876694 -0.8674145 
0.532 0.8765203 -0.8683994 
0.537 0.8753619 -0.8692105 
0.544 0.8761729 -0.8703689 
0.549 0.8750145 -0.8711801 
0.553 0.8722336 -0.8696743 
0.559 0.8710753 -0.8704854 
0.564 0.8692793 -0.8691534 
0.569 0.8681208 -0.8699645 
0.574 0.8671361 -0.8697909 
0.581 0.8677737 -0.8719342 
0.587 0.8674263 -0.8739038 
0.592 0.8654565 -0.8735564 
0.598 0.8652829 -0.8745413 
0.602 0.8625022 -0.8730354 
0.608 0.8613437 -0.8738467 
0.611 0.8577518 -0.8711824 
0.618 0.8574045 -0.8731521 
0.623 0.8554349 -0.8728048 
0.628 0.8544501 -0.8726311 
0.634 0.8532915 -0.8734423 
0.64 0.8529443 -0.8754119 
0.646 0.8519595 -0.8752383 
0.652 0.8508011 -0.8760494 
0.657 0.8496426 -0.8768606 
0.663 0.8484842 -0.8776717 
0.669 0.8473256 -0.8784828 
0.675 0.8463408 -0.8783092 
0.681 0.8451825 -0.8791204 
0.686 0.844024 -0.8799316 
0.692 0.8428655 -0.8807428 
0.698 0.840896 -0.8803955 
0.703 0.8389262 -0.8800482 
0.708 0.8367829 -0.8806857 
0.714 0.8356245 -0.8814968 
0.719 0.8328438 -0.8799911 
0.725 0.8324965 -0.8819606 
0.731 0.8305268 -0.8816134 
0.736 0.8283836 -0.8822509 
0.742 0.827225 -0.883062 
0.75 0.8278626 -0.8852053 
0.755 0.8249083 -0.8846843 
0.761 0.8237497 -0.8854955 
0.767 0.8217802 -0.8851482 
0.77 0.8172035 -0.8823103 
0.775 0.8142489 -0.8817894 
0.78 0.8121058 -0.8824269 
0.786 0.8101361 -0.8820796 
0.793 0.8097887 -0.8840492 
0.801 0.8102527 -0.8871773 
0.809 0.8107166 -0.8903054 
0.816 0.809558 -0.8911165 
0.823 0.8082259 -0.8929125 
0.83 0.8070675 -0.8937237 
0.836 0.805909 -0.8945348 
0.841 0.8029547 -0.8940139 
0.846 0.8000003 -0.8934929 
0.853 0.797857 -0.8941305 
0.859 0.7957137 -0.8947679 
0.864 0.7927593 -0.8942469 
0.871 0.7916008 -0.8950582 
0.88 0.7920648 -0.8981863 
0.887 0.7907325 -0.8999822 
0.894 0.7894005 -0.9017782 
0.901 0.7872573 -0.9024156 
0.906 0.7843028 -0.9018947 
0.91 0.7805371 -0.9002153 
0.915 0.7767717 -0.898536 
0.921 0.7746285 -0.8991735 
0.928 0.772485 -0.8998109 
0.933 0.7693571 -0.9002749 
0.94 0.7672138 -0.9009123 
0.948 0.7658817 -0.9027083 
0.956 0.7645496 -0.9045043 
0.961 0.7615951 -0.9039834 
0.968 0.7594518 -0.9046209 
0.975 0.7573086 -0.9052583 
0.981 0.7541804 -0.9057221 
0.988 0.7520372 -0.9063597 
0.995 0.7497203 -0.9079821 
1.002 0.7475771 -0.9086195 
1.008 0.744449 -0.9090834 
1.016 0.7423058 -0.909721 
1.021 0.7383665 -0.9090264 
1.027 0.7352384 -0.9094902 
1.035 0.7330952 -0.9101278 
1.041 0.7299671 -0.9105915 
1.049 0.7278239 -0.9112291 
1.055 0.7246957 -0.911693 
1.063 0.7223788 -0.9133152 
1.072 0.7208732 -0.9160961 
1.08 0.7185562 -0.9177183 
1.087 0.7154282 -0.9181821 
1.096 0.714096 -0.9199782 
1.103 0.7107943 -0.9214268 
1.109 0.706855 -0.9207323 
1.118 0.7045382 -0.9223545 
1.126 0.7022213 -0.9239769 
1.132 0.698282 -0.9232823 
1.141 0.6957915 -0.9258895 
1.147 0.6918523 -0.9251949 
1.153 0.687913 -0.9245003 
1.158 0.682989 -0.923632 
1.169 0.6814832 -0.9264128 
1.177 0.6781814 -0.9278615 
0 0 0 
0 0 0 
0 0 0 
0 0 0 
0 0 0 
0 0 0 
0 0 0 
0 0 0 
0 0 0 
0 0 0 
0 0 0 
0 0 0 
0 0 0 
0 0 0 
0 0 0 
0 0 0 
0 0 0 
0 0 0 
0 0 0 
0 0 0 
0 0 0 
0 0 0 
0 0 0 
0 0 0 
0 0 0 
0 0 0 
0 0 0 
0 0 0 
0 0 0 
0 0 0 
0 0 0 
0 0 0 
0 0 0 
0 0 0 
0 0 0 
0 0 0 
0 0 0 
0 0 0 
0 0 0 
0 0 0 
0 0 0 
0 0 0 
0 0 0 
0 0 0 
0 0 0 
0 0 0 
0 0 0 
0 0 0 
0 0 0 
0 0 0 
0 0 0 
0 0 0 
0 0 0 
0 0 0 
0 0 0 
0 0 0 
0 0 0 
0 0 0 
0 0 0 
0 0 0 
0 0 0 
0 0 0 
0 0 0 
0 0 0 
0 0 0 
0 0 0 
0 0 0 
0 0 0 
0 0 0 
0 0 0 
0 0 0 
0 0 0 
0 0 0 
0 0 0 
0 0 0 
0 0 0 
0 0 0 
0 0 0 
0 0 0 
0 0 0 
0 0 0 
0 0 0 
0 0 0 
0 0 0 
0 0 0 
0 0 0 
0 0 0 
0 0 0 
0 0 0 
0 0 0 
-1.038 0.5985737 -0.8264977 
-1.027 0.5992683 -0.8225585 
-1.016 0.5999628 -0.8186193 
-1.007 0.6014687 -0.8158385 
-1.002 0.6054079 -0.8165331 
-1 0.6109694 -0.8195446 
-0.994 0.6140975 -0.8190807 
-0.99 0.6180367 -0.8197753 
-0.984 0.6211647 -0.8193115 
-0.978 0.6241193 -0.8198324 
-0.972 0.6272473 -0.8193686 
-0.967 0.6311865 -0.8200632 
-0.96 0.6333297 -0.8194256 
-0.952 0.6348355 -0.8166448 
-0.945 0.6369787 -0.8160074 
-0.939 0.6392957 -0.8143849 
-0.933 0.6422502 -0.814906 
-0.929 0.6461893 -0.8156005 
-0.926 0.6507661 -0.8184384 
-0.922 0.6547053 -0.819133 
-0.918 0.6584709 -0.8208125 
-0.91 0.659803 -0.8190165 
-0.905 0.6629311 -0.8185526 
-0.898 0.6650743 -0.8179151 
-0.893 0.6680288 -0.818436 
-0.887 0.670172 -0.8177986 
-0.883 0.6739376 -0.8194779 
-0.877 0.6762545 -0.8178556 
-0.872 0.6792089 -0.8183765 
-0.866 0.6813523 -0.817739 
-0.862 0.6851178 -0.8194185 
-0.856 0.687261 -0.818781 
-0.851 0.6902155 -0.8193018 
-0.846 0.6923588 -0.8186644 
-0.839 0.6935172 -0.8178532 
-0.831 0.6940382 -0.8148987 
-0.826 0.6969926 -0.8154197 
-0.821 0.6991358 -0.8147823 
-0.817 0.7029015 -0.8164616 
-0.813 0.706667 -0.818141 
-0.808 0.7086366 -0.8184884 
-0.802 0.7107799 -0.8178508 
-0.795 0.7111273 -0.8158813 
-0.787 0.7116482 -0.8129268 
-0.782 0.7136177 -0.8132741 
-0.778 0.7165722 -0.813795 
-0.773 0.7195266 -0.814316 
-0.768 0.7214962 -0.8146633 
-0.764 0.7244506 -0.8151842 
-0.76 0.7282163 -0.8168636 
-0.756 0.730997 -0.8183694 
-0.75 0.7323291 -0.8165734 
-0.745 0.7351099 -0.8180791 
-0.74 0.7372532 -0.8174417 
-0.734 0.7384116 -0.8166304 
-0.731 0.7421772 -0.8183099 
-0.726 0.7441468 -0.8186572 
-0.721 0.7471013 -0.8191781 
-0.716 0.7490709 -0.8195254 
-0.711 0.7510405 -0.8198727 
-0.705 0.7513877 -0.817903 
-0.699 0.7525462 -0.8170919 
-0.694 0.7545159 -0.8174393 
-0.69 0.7574703 -0.8179601 
-0.685 0.7594398 -0.8183075 
-0.68 0.7614095 -0.8186548 
-0.677 0.7651751 -0.8203341 
-0.67 0.7655224 -0.8183645 
-0.666 0.768303 -0.8198704 
-0.661 0.7702727 -0.8202176 
-0.657 0.7722423 -0.8205649 
-0.651 0.7734008 -0.8197538 
-0.646 0.7745593 -0.8189425 
-0.64 0.7757177 -0.8181314 
-0.635 0.7767025 -0.8183051 
-0.63 0.7788458 -0.8176675 
-0.625 0.7798306 -0.8178413 
-0.62 0.7818002 -0.8181885 
-0.615 0.7837697 -0.8185358 
-0.61 0.7849283 -0.8177247 
-0.606 0.7877091 -0.8192304 
-0.602 0.7904898 -0.8207362 
-0.596 0.7908371 -0.8187666 
-0.592 0.7936179 -0.8202723 
-0.588 0.7955874 -0.8206196 
-0.582 0.796746 -0.8198085 
-0.577 0.7977307 -0.8199822 
-0.573 0.7997003 -0.8203294 
-0.568 0.80167 -0.8206767 
-0.563 0.8028285 -0.8198655 
-0.558 0.8046244 -0.8211976 
-0.554 0.806594 -0.8215449 
-0.549 0.8085637 -0.8218923 
-0.545 0.8105333 -0.8222395 
-0.54 0.811518 -0.8224132 
-0.534 0.8118654 -0.8204435 
-0.529 0.8128502 -0.8206171 
-0.524 0.8140087 -0.819806 
-0.519 0.8149935 -0.8199797 
-0.514 0.8159783 -0.8201533 
-0.51 0.817948 -0.8205006 
-0.505 0.8199176 -0.8208479 
-0.5 0.8209022 -0.8210215 
-0.496 0.8220607 -0.8202104 
-0.491 0.8230456 -0.8203841 
-0.486 0.8250152 -0.8207314 
-0.481 0.826 -0.820905 
-0.476 0.8269848 -0.8210787 
-0.472 0.8281433 -0.8202674 
-0.468 0.830924 -0.8217733 
-0.463 0.8319088 -0.8219469 
-0.458 0.8328936 -0.8221205 
-0.453 0.8340522 -0.8213093 
-0.449 0.8358482 -0.8226415 
-0.445 0.8378177 -0.8229887 
-0.439 0.8379913 -0.822004 
-0.435 0.8389761 -0.8221775 
-0.429 0.8391497 -0.8211927 
-0.425 0.8401346 -0.8213664 
-0.419 0.839497 -0.8192232 
-0.415 0.8412931 -0.8205553 
-0.41 0.8432627 -0.8209026 
-0.406 0.8442475 -0.8210763 
-0.401 0.8452322 -0.8212498 
-0.396 0.845406 -0.8202651 
-0.392 0.8472019 -0.8215972 
-0.386 0.8473756 -0.8206124 
-0.382 0.8491715 -0.8219445 
-0.378 0.8511411 -0.8222917 
-0.374 0.8539218 -0.8237975 
-0.37 0.8557178 -0.8251296 
-0.365 0.8575138 -0.8264618 
-0.361 0.8584988 -0.8266354 
-0.356 0.859657 -0.8258241 
-0.35 0.8580347 -0.8235073 
-0.345 0.8580347 -0.8235073 
-0.34 0.8582084 -0.8225225 
-0.336 0.8600044 -0.8238546 
-0.332 0.8609892 -0.8240283 
-0.327 0.8629588 -0.8243755 
-0.322 0.8629588 -0.8243755 
-0.318 0.8639436 -0.8245492 
-0.313 0.8649284 -0.8247229 
-0.308 0.8651021 -0.8237381 
-0.304 0.8668981 -0.8250702 
-0.3 0.8696789 -0.8265759 
-0.295 0.8706636 -0.8267495 
-0.291 0.8706636 -0.8267495 
-0.286 0.8716484 -0.8269231 
-0.281 0.8718221 -0.8259383 
-0.277 0.8728069 -0.826112 
-0.272 0.8737916 -0.8262857 
-0.268 0.8755877 -0.8276178 
-0.263 0.8755877 -0.8276178 
-0.258 0.8757614 -0.826633 
-0.253 0.8757614 -0.826633 
-0.248 0.875935 -0.8256482 
-0.244 0.8769197 -0.8258219 
-0.239 0.8769197 -0.8258219 
-0.235 0.8787156 -0.8271539 
-0.23 0.8797005 -0.8273276 
-0.226 0.8806854 -0.8275012 
-0.221 0.8816701 -0.8276749 
-0.217 0.8834662 -0.829007 
-0.212 0.8844509 -0.8291806 
-0.208 0.8844509 -0.8291806 
-0.203 0.8854358 -0.8293543 
-0.198 0.8854358 -0.8293543 
-0.194 0.8854358 -0.8293543 
-0.189 0.8874053 -0.8297015 
-0.185 0.8874053 -0.8297015 
-0.18 0.8874053 -0.8297015 
-0.175 0.8883903 -0.8298752 
-0.171 0.8883903 -0.8298752 
-0.166 0.8901863 -0.8312073 
-0.162 0.8903599 -0.8302225 
-0.157 0.8903599 -0.8302225 
-0.153 0.8921558 -0.8315546 
-0.148 0.8921558 -0.8315546 
-0.143 0.8931406 -0.8317282 
-0.139 0.8939517 -0.8328867 
-0.134 0.8957477 -0.8342188 
-0.13 0.8959213 -0.833234 
-0.125 0.8967326 -0.8343925 
-0.12 0.8969062 -0.8334076 
-0.116 0.8977173 -0.8345661 
-0.111 0.8977173 -0.8345661 
-0.107 0.8987021 -0.8347398 
-0.102 0.8995133 -0.8358982 
-0.097 0.8996869 -0.8349134 
-0.093 0.9004981 -0.8360718 
-0.088 0.9004981 -0.8360718 
-0.083 0.8996869 -0.8349134 
-0.079 0.9006717 -0.8350871 
-0.074 0.9006717 -0.8350871 
-0.069 0.8998606 -0.8339286 
-0.065 0.8998606 -0.8339286 
-0.06 0.8998606 -0.8339286 
-0.056 0.8998606 -0.8339286 
-0.051 0.9006717 -0.8350871 
-0.046 0.9008453 -0.8341023 
-0.042 0.9008453 -0.8341023 
-0.037 0.9016565 -0.8352607 
-0.033 0.9034525 -0.8365928 
-0.028 0.9052484 -0.8379248 
-0.023 0.9068709 -0.8402419 
-0.019 0.9068709 -0.8402419 
-0.014 0.9068709 -0.8402419 
-0.009 0.9068709 -0.8402419 
-0.005 0.9068709 -0.8402419 
0 0.9068709 -0.8402419 
0.005 0.9086668 -0.841574 
0.009 0.9086668 -0.841574 
0.014 0.9078556 -0.8404155 
0.019 0.9078556 -0.8404155 
0.023 0.9068709 -0.8402419 
0.028 0.9060596 -0.8390834 
0.033 0.9060596 -0.8390834 
0.037 0.9060596 -0.8390834 
0.042 0.9060596 -0.8390834 
0.047 0.9068709 -0.8402419 
0.051 0.9076818 -0.8414003 
0.056 0.9076818 -0.8414003 
0.061 0.9076818 -0.8414003 
0.065 0.9084932 -0.8425587 
0.07 0.9066972 -0.8412267 
0.075 0.9076818 -0.8414003 
0.079 0.9066972 -0.8412267 
0.084 0.9075083 -0.8423851 
0.089 0.9084932 -0.8425587 
0.094 0.9093044 -0.8437172 
0.098 0.9083195 -0.8435435 
0.103 0.9091306 -0.844702 
0.108 0.9083195 -0.8435435 
0.112 0.9083195 -0.8435435 
0.117 0.9073346 -0.8433698 
0.122 0.9073346 -0.8433698 
0.126 0.9063499 -0.8431963 
0.131 0.9071609 -0.8443547 
0.136 0.9071609 -0.8443547 
0.141 0.9071609 -0.8443547 
0.146 0.9071609 -0.8443547 
0.15 0.9069874 -0.8453395 
0.155 0.9069874 -0.8453395 
0.16 0.9069874 -0.8453395 
0.165 0.9068137 -0.8463243 
0.17 0.9076249 -0.8474828 
0.174 0.9076249 -0.8474828 
0.179 0.9066399 -0.8473091 
0.184 0.9074513 -0.8484676 
0.189 0.9066399 -0.8473091 
0.193 0.9056553 -0.8471355 
0.198 0.9064664 -0.8482939 
0.203 0.9054816 -0.8481203 
0.208 0.9062927 -0.8492788 
0.213 0.9062927 -0.8492788 
0.218 0.906119 -0.8502635 
0.222 0.905308 -0.8491052 
0.227 0.9059454 -0.8512484 
0.232 0.9051343 -0.8500899 
0.237 0.9049608 -0.8510748 
0.242 0.9039758 -0.8509011 
0.246 0.9031646 -0.8497427 
0.251 0.9029911 -0.8507274 
0.256 0.9029911 -0.8507274 
0.261 0.9036285 -0.8528707 
0.266 0.9018326 -0.8515386 
0.271 0.9018326 -0.8515386 
0.275 0.9008479 -0.851365 
0.28 0.9006742 -0.8523498 
0.286 0.9014853 -0.8535082 
0.291 0.9031076 -0.8558251 
0.296 0.9039189 -0.8569836 
0.302 0.90473 -0.858142 
0.306 0.9027603 -0.8577948 
0.311 0.9009643 -0.8564626 
0.315 0.8991684 -0.8551306 
0.32 0.8989948 -0.8561153 
0.325 0.8988212 -0.8571001 
0.33 0.8978363 -0.8569266 
0.335 0.8978363 -0.8569266 
0.341 0.8984739 -0.8590697 
0.346 0.899285 -0.8602282 
0.352 0.9000961 -0.8613867 
0.357 0.9007336 -0.8635299 
0.363 0.9015447 -0.8646884 
0.367 0.8997488 -0.8633564 
0.371 0.896968 -0.8618505 
0.376 0.8959832 -0.8616768 
0.381 0.8940136 -0.8613296 
0.385 0.8922178 -0.8599974 
0.39 0.8912328 -0.8598238 
0.395 0.8910592 -0.8608086 
0.4 0.8900744 -0.860635 
0.406 0.8899008 -0.8616198 
0.411 0.8905382 -0.8637631 
0.417 0.8905382 -0.8637631 
0.421 0.8885686 -0.8634157 
0.427 0.888395 -0.8644006 
0.432 0.8874102 -0.8642269 
0.437 0.8872365 -0.8652117 
0.442 0.8854405 -0.8638797 
0.447 0.8842821 -0.8646908 
0.451 0.8824862 -0.8633587 
0.456 0.8805165 -0.8630114 
0.461 0.8795318 -0.8628378 
0.466 0.8793581 -0.8638226 
0.471 0.8783733 -0.8636489 
0.477 0.8772149 -0.8644601 
0.481 0.8754188 -0.8631279 
0.486 0.8734491 -0.8627807 
0.491 0.8732755 -0.8637655 
0.497 0.8731019 -0.8647503 
0.502 0.8721171 -0.8645766 
0.508 0.8727547 -0.8667198 
0.513 0.8715961 -0.8675311 
0.519 0.8714224 -0.8685158 
0.524 0.8704378 -0.8683422 
0.53 0.8702641 -0.8693269 
0.535 0.8691056 -0.8701382 
0.541 0.8689319 -0.871123 
0.546 0.8669624 -0.8707757 
0.551 0.8649927 -0.8704284 
0.556 0.8631967 -0.8690962 
0.561 0.8620383 -0.8699074 
0.566 0.8610535 -0.8697338 
0.572 0.8607062 -0.8717034 
0.579 0.8613437 -0.8738467 
0.584 0.860359 -0.873673 
0.59 0.8592005 -0.8744842 
0.595 0.858042 -0.8752954 
0.601 0.8570573 -0.8751217 
0.605 0.8550875 -0.8747745 
0.61 0.8523067 -0.8732687 
0.616 0.8519595 -0.8752383 
0.621 0.8499899 -0.8748909 
0.626 0.8480202 -0.8745436 
0.631 0.8460506 -0.8741964 
0.637 0.845877 -0.8751811 
0.643 0.8447185 -0.8759924 
0.649 0.844545 -0.8769772 
0.655 0.8433865 -0.8777883 
0.661 0.8422279 -0.8785994 
0.666 0.8402584 -0.8782521 
0.672 0.8399111 -0.8802218 
0.678 0.8387526 -0.8810329 
0.684 0.8375942 -0.881844 
0.69 0.8374205 -0.8828289 
0.696 0.836262 -0.88364 
0.702 0.8342924 -0.8832928 
0.706 0.831338 -0.8827718 
0.712 0.8301796 -0.8835829 
0.717 0.8273988 -0.8820772 
0.722 0.8252555 -0.8827147 
0.727 0.8232859 -0.8823675 
0.733 0.8213164 -0.8820201 
0.74 0.8217802 -0.8851482 
0.747 0.8214328 -0.8871179 
0.753 0.8194633 -0.8867706 
0.759 0.8183048 -0.8875817 
0.765 0.8161616 -0.8882192 
0.768 0.8115848 -0.8853813 
0.772 0.808804 -0.8838756 
0.778 0.8066608 -0.8845131 
0.784 0.8055022 -0.8853242 
0.79 0.8035327 -0.884977 
0.798 0.8039966 -0.888105 
0.807 0.8044604 -0.8912331 
0.813 0.8031282 -0.8930291 
0.82 0.8019699 -0.8938403 
0.827 0.8008115 -0.8946514 
0.833 0.7994794 -0.8964474 
0.838 0.7965249 -0.8959265 
0.843 0.7935703 -0.8954055 
0.848 0.7907896 -0.8938997 
0.854 0.7886463 -0.8945372 
0.86 0.7856921 -0.8940163 
0.868 0.7851711 -0.8969707 
0.876 0.7848238 -0.8989403 
0.884 0.7844765 -0.9009099 
0.89 0.7823331 -0.9015474 
0.895 0.7793788 -0.9010265 
0.902 0.7772354 -0.901664 
0.906 0.7732962 -0.9009694 
0.91 0.7695307 -0.89929 
0.917 0.7673874 -0.8999276 
0.924 0.7660553 -0.9017235 
0.929 0.7622897 -0.9000441 
0.936 0.7601464 -0.9006816 
0.942 0.7578295 -0.902304 
0.95 0.7564974 -0.9040999 
0.955 0.7527318 -0.9024205 
0.963 0.7513998 -0.9042164 
0.969 0.7492565 -0.9048539 
0.975 0.7461284 -0.9053179 
0.982 0.7439851 -0.9059554 
0.989 0.7418419 -0.9065928 
0.998 0.7403362 -0.9093736 
1.004 0.7373817 -0.9088527 
1.01 0.7342536 -0.9093165 
1.014 0.7295033 -0.9074636 
1.021 0.72736 -0.908101 
1.027 0.7242319 -0.9085648 
1.035 0.721915 -0.9101872 
1.043 0.7197717 -0.9108247 
1.05 0.7174549 -0.912447 
1.057 0.7143267 -0.9129108 
1.066 0.712821 -0.9156917 
1.074 0.7106777 -0.9163291 
1.079 0.7065649 -0.9166194 
1.089 0.7052327 -0.9184154 
1.096 0.701931 -0.9198639 
1.101 0.6979917 -0.9191694 
1.109 0.6948637 -0.9196334 
1.116 0.6917357 -0.9200972 
1.123 0.6886076 -0.920561 
1.13 0.6853058 -0.9220097 
1.136 0.6813666 -0.9213151 
1.144 0.6782385 -0.921779 
1.151 0.6749369 -0.9232277 
1.159 0.6718087 -0.9236915 
1.171 0.6709405 -0.9286156 
0 0 0 
0 0 0 
0 0 0 
0 0 0 
0 0 0 
0 0 0 
0 0 0 
0 0 0 
0 0 0 
0 0 0 
0 0 0 
0 0 0 
0 0 0 
0 0 0 
0 0 0 
0 0 0 
0 0 0 
0 0 0 
0 0 0 
0 0 0 
0 0 0 
0 0 0 
0 0 0 
0 0 0 
0 0 0 
0 0 0 
0 0 0 
0 0 0 
0 0 0 
0 0 0 
0 0 0 
0 0 0 
0 0 0 
0 0 0 
0 0 0 
0 0 0 
0 0 0 
0 0 0 
0 0 0 
0 0 0 
0 0 0 
0 0 0 
0 0 0 
0 0 0 
0 0 0 
0 0 0 
0 0 0 
0 0 0 
0 0 0 
0 0 0 
0 0 0 
0 0 0 
0 0 0 
0 0 0 
0 0 0 
0 0 0 
0 0 0 
0 0 0 
0 0 0 
0 0 0 
0 0 0 
0 0 0 
0 0 0 
0 0 0 
0 0 0 
0 0 0 
0 0 0 
0 0 0 
0 0 0 
0 0 0 
0 0 0 
0 0 0 
0 0 0 
0 0 0 
0 0 0 
0 0 0 
0 0 0 
0 0 0 
0 0 0 
0 0 0 
0 0 0 
0 0 0 
0 0 0 
0 0 0 
0 0 0 
0 0 0 
0 0 0 
0 0 0 
0 0 0 
0 0 0 
0 0 0 
-1.025 0.5946344 -0.825803 
-1.013 0.5945178 -0.8207055 
-1.004 0.5960237 -0.8179247 
-0.999 0.5999628 -0.8186193 
-0.996 0.6047132 -0.8204724 
-0.989 0.6070302 -0.8188499 
-0.987 0.6125917 -0.8218616 
-0.982 0.6165309 -0.8225561 
-0.975 0.6188478 -0.8209338 
-0.969 0.6218023 -0.8214548 
-0.966 0.6265527 -0.8233078 
-0.957 0.6280584 -0.820527 
-0.949 0.6293905 -0.8187311 
-0.942 0.6315339 -0.8180935 
-0.934 0.6330396 -0.8153127 
-0.929 0.635994 -0.8158337 
-0.925 0.6399333 -0.8165283 
-0.922 0.64451 -0.8193662 
-0.919 0.6492604 -0.8212192 
-0.914 0.6522148 -0.8217402 
-0.907 0.6545317 -0.8201178 
-0.902 0.6574861 -0.8206388 
-0.897 0.6604404 -0.8211597 
-0.892 0.6635686 -0.8206959 
-0.887 0.6665231 -0.8212168 
-0.88 0.6686663 -0.8205792 
-0.873 0.6699983 -0.8187833 
-0.868 0.6729528 -0.8193042 
-0.862 0.6750961 -0.8186668 
-0.858 0.6788617 -0.8203462 
-0.854 0.681816 -0.8208671 
-0.851 0.6865665 -0.8227202 
-0.844 0.6877249 -0.821909 
-0.838 0.6898682 -0.8212715 
-0.831 0.6912003 -0.8194755 
-0.825 0.6923588 -0.8186644 
-0.819 0.694502 -0.8180268 
-0.813 0.6966453 -0.8173894 
-0.808 0.6987886 -0.8167518 
-0.802 0.7007582 -0.8170992 
-0.797 0.7029015 -0.8164616 
-0.79 0.7040599 -0.8156505 
-0.785 0.7062032 -0.8150129 
-0.78 0.7083464 -0.8143755 
-0.774 0.7103161 -0.8147228 
-0.77 0.7132704 -0.8152437 
-0.766 0.7162248 -0.8157647 
-0.761 0.7190057 -0.8172704 
-0.757 0.7219601 -0.8177913 
-0.752 0.7249146 -0.8183123 
-0.748 0.7276953 -0.819818 
-0.743 0.7298386 -0.8191805 
-0.737 0.730997 -0.8183694 
-0.732 0.7329666 -0.8187166 
-0.728 0.735921 -0.8192376 
-0.723 0.7387018 -0.8207433 
-0.718 0.740845 -0.8201059 
-0.713 0.7428147 -0.8204532 
-0.707 0.7439731 -0.8196419 
-0.702 0.7451316 -0.8188308 
-0.696 0.74629 -0.8180196 
-0.692 0.7492445 -0.8185406 
-0.686 0.7504029 -0.8177295 
-0.682 0.7531837 -0.8192352 
-0.676 0.7543422 -0.818424 
-0.672 0.7572966 -0.8189449 
-0.667 0.7582814 -0.8191186 
-0.663 0.7612358 -0.8196396 
-0.657 0.7623943 -0.8188285 
-0.653 0.7651751 -0.8203341 
-0.648 0.7671447 -0.8206815 
-0.644 0.7691143 -0.8210287 
-0.638 0.7702727 -0.8202176 
-0.633 0.7722423 -0.8205649 
-0.628 0.7734008 -0.8197538 
-0.622 0.7735745 -0.8187689 
-0.617 0.775544 -0.8191162 
-0.612 0.7767025 -0.8183051 
-0.607 0.7778609 -0.8174939 
-0.603 0.7806418 -0.8189996 
-0.598 0.7826114 -0.819347 
-0.593 0.7837697 -0.8185358 
-0.588 0.7857395 -0.8188832 
-0.585 0.7885202 -0.8203889 
-0.579 0.7886939 -0.8194041 
-0.574 0.7906635 -0.8197514 
-0.57 0.7926331 -0.8200986 
-0.565 0.7946027 -0.820446 
-0.559 0.7947763 -0.8194611 
-0.556 0.7975571 -0.820967 
-0.551 0.7995268 -0.8213142 
-0.547 0.8014963 -0.8216615 
-0.542 0.803466 -0.8220088 
-0.537 0.8044508 -0.8221824 
-0.531 0.8046244 -0.8211976 
-0.526 0.805783 -0.8203864 
-0.521 0.8067677 -0.8205601 
-0.517 0.8079262 -0.8197489 
-0.512 0.8098959 -0.8200963 
-0.508 0.8116917 -0.8214282 
-0.503 0.8136613 -0.8217756 
-0.498 0.8146462 -0.8219492 
-0.494 0.8166159 -0.8222965 
-0.489 0.8176006 -0.8224702 
-0.484 0.818759 -0.8216591 
-0.479 0.8189327 -0.8206742 
-0.475 0.8207286 -0.8220063 
-0.47 0.8218871 -0.8211952 
-0.466 0.8246679 -0.8227009 
-0.461 0.8256527 -0.8228745 
-0.457 0.8276224 -0.8232219 
-0.451 0.827796 -0.8222371 
-0.447 0.8287808 -0.8224107 
-0.442 0.8305767 -0.8237428 
-0.437 0.8307503 -0.822758 
-0.433 0.83272 -0.8231053 
-0.428 0.8328936 -0.8221205 
-0.423 0.8338784 -0.8222942 
-0.418 0.8348632 -0.8224678 
-0.413 0.8358482 -0.8226415 
-0.409 0.8370065 -0.8218303 
-0.404 0.8371801 -0.8208455 
-0.399 0.8381649 -0.8210191 
-0.393 0.8373538 -0.8198607 
-0.389 0.8393234 -0.820208 
-0.385 0.8403083 -0.8203817 
-0.38 0.8421042 -0.8217137 
-0.376 0.8440738 -0.822061 
-0.372 0.8466809 -0.8245516 
-0.368 0.8486506 -0.824899 
-0.363 0.8496354 -0.8250725 
-0.359 0.8506202 -0.8252462 
-0.354 0.8516049 -0.8254198 
-0.349 0.8507939 -0.8242614 
-0.343 0.8501563 -0.8221181 
-0.338 0.8501563 -0.8221181 
-0.334 0.8521259 -0.8224654 
-0.33 0.8539218 -0.8237975 
-0.326 0.8557178 -0.8251296 
-0.321 0.8567026 -0.8253032 
-0.316 0.8576876 -0.8254769 
-0.312 0.8586724 -0.8256506 
-0.307 0.8588459 -0.8246657 
-0.303 0.8606419 -0.8259978 
-0.299 0.8626115 -0.8263451 
-0.294 0.8626115 -0.8263451 
-0.289 0.8627852 -0.8253603 
-0.284 0.8637699 -0.825534 
-0.28 0.8647548 -0.8257077 
-0.275 0.865566 -0.8268661 
-0.271 0.8675357 -0.8272134 
-0.266 0.8685204 -0.8273871 
-0.262 0.8685204 -0.8273871 
-0.257 0.8677092 -0.8262286 
-0.252 0.8678828 -0.8252438 
-0.247 0.8678828 -0.8252438 
-0.242 0.8688676 -0.8254174 
-0.238 0.8698524 -0.8255911 
-0.234 0.8716484 -0.8269231 
-0.229 0.8726332 -0.8270968 
-0.225 0.8744293 -0.8284289 
-0.22 0.8744293 -0.8284289 
-0.216 0.8754141 -0.8286026 
-0.211 0.8763989 -0.8287762 
-0.206 0.8763989 -0.8287762 
-0.202 0.8773837 -0.8289498 
-0.197 0.8783684 -0.8291235 
-0.193 0.8801644 -0.8304557 
-0.189 0.8811492 -0.8306293 
-0.184 0.8819605 -0.8317878 
-0.179 0.8811492 -0.8306293 
-0.175 0.8821341 -0.830803 
-0.17 0.8831189 -0.8309766 
-0.165 0.8831189 -0.8309766 
-0.161 0.8831189 -0.8309766 
-0.156 0.8841037 -0.8311503 
-0.152 0.8850884 -0.8313239 
-0.147 0.8850884 -0.8313239 
-0.143 0.8868845 -0.832656 
-0.138 0.8868845 -0.832656 
-0.134 0.8878694 -0.8328297 
-0.129 0.8886803 -0.8339881 
-0.124 0.8896652 -0.8341618 
-0.12 0.888854 -0.8330033 
-0.115 0.8896652 -0.8341618 
-0.111 0.8914611 -0.8354938 
-0.106 0.892446 -0.8356674 
-0.102 0.892446 -0.8356674 
-0.097 0.8934308 -0.8358411 
-0.092 0.8934308 -0.8358411 
-0.088 0.8934308 -0.8358411 
-0.083 0.8926197 -0.8346827 
-0.078 0.8934308 -0.8358411 
-0.074 0.8934308 -0.8358411 
-0.069 0.8936044 -0.8348563 
-0.065 0.8936044 -0.8348563 
-0.06 0.8936044 -0.8348563 
-0.055 0.8927934 -0.8336979 
-0.051 0.8936044 -0.8348563 
-0.046 0.8945894 -0.83503 
-0.042 0.8945894 -0.83503 
-0.037 0.8954003 -0.8361884 
-0.032 0.8962116 -0.837347 
-0.028 0.8962116 -0.837347 
-0.023 0.8989924 -0.8388526 
-0.019 0.8989924 -0.8388526 
-0.014 0.8998035 -0.8400111 
-0.009 0.8998035 -0.8400111 
-0.005 0.9006146 -0.8411695 
0 0.9006146 -0.8411695 
0.005 0.9024107 -0.8425016 
0.009 0.9032217 -0.8436601 
0.014 0.9015995 -0.8413432 
0.019 0.9006146 -0.8411695 
0.023 0.8998035 -0.8400111 
0.028 0.8989924 -0.8388526 
0.032 0.8971964 -0.8375206 
0.037 0.8988187 -0.8398374 
0.042 0.8980076 -0.8386791 
0.046 0.8998035 -0.8400111 
0.051 0.8998035 -0.8400111 
0.056 0.9022369 -0.8434864 
0.061 0.9022369 -0.8434864 
0.065 0.9032217 -0.8436601 
0.07 0.9014258 -0.842328 
0.074 0.8996298 -0.8409959 
0.079 0.898645 -0.8408222 
0.084 0.9004411 -0.8421544 
0.088 0.9004411 -0.8421544 
0.093 0.9020634 -0.8444713 
0.098 0.9012522 -0.8433128 
0.103 0.9012522 -0.8433128 
0.107 0.9002672 -0.8431392 
0.112 0.9002672 -0.8431392 
0.117 0.9002672 -0.8431392 
0.121 0.9000937 -0.844124 
0.126 0.9000937 -0.844124 
0.131 0.8992825 -0.8429655 
0.135 0.9000937 -0.844124 
0.14 0.900905 -0.8452824 
0.145 0.9007312 -0.8462672 
0.15 0.901716 -0.8464409 
0.155 0.9025272 -0.8475994 
0.159 0.9015424 -0.8474257 
0.164 0.9015424 -0.8474257 
0.169 0.9013687 -0.8484105 
0.174 0.9013687 -0.8484105 
0.178 0.9003839 -0.8482369 
0.183 0.8995727 -0.8470784 
0.187 0.8985879 -0.8469048 
0.192 0.8976032 -0.8467311 
0.197 0.8984143 -0.8478896 
0.202 0.8974295 -0.847716 
0.207 0.8982406 -0.8488743 
0.212 0.8990518 -0.8500328 
0.217 0.9008479 -0.851365 
0.221 0.8988782 -0.8510176 
0.227 0.9006742 -0.8523498 
0.231 0.8996893 -0.8521761 
0.236 0.8978934 -0.850844 
0.241 0.8987044 -0.8520024 
0.245 0.8967349 -0.8516551 
0.25 0.894939 -0.850323 
0.255 0.894939 -0.850323 
0.26 0.89575 -0.8514816 
0.264 0.8937805 -0.8511342 
0.269 0.8937805 -0.8511342 
0.274 0.8936068 -0.852119 
0.279 0.8936068 -0.852119 
0.285 0.8952291 -0.8544359 
0.29 0.8976625 -0.8579113 
0.295 0.8976625 -0.8579113 
0.3 0.8974889 -0.8588961 
0.305 0.894882 -0.8564056 
0.309 0.8929123 -0.8560583 
0.313 0.8911163 -0.8547262 
0.319 0.8919274 -0.8558846 
0.324 0.8917536 -0.8568694 
0.329 0.8915801 -0.8578542 
0.334 0.8915801 -0.8578542 
0.339 0.8914065 -0.858839 
0.345 0.8922178 -0.8599974 
0.35 0.8928552 -0.8621408 
0.356 0.8936663 -0.8632993 
0.361 0.8952887 -0.8656161 
