ply
format ascii 1.0
element vertex 3368
property float x
property float y
property float z
end_header
-684 -340 2277
-689 -347 2326
-687 -351 2355
-686 -356 2386
-679 -358 2400
-673 -359 2413
-665 -360 2423
-657 -362 2433
-648 -362 2439
-639 -362 2442
-629 -362 2444
-618 -362 2444
-608 -362 2445
-598 -362 2446
-587 -362 2445
-577 -361 2445
-567 -361 2444
-556 -361 2443
-545 -360 2440
-535 -360 2439
-524 -359 2436
-513 -358 2434
-503 -358 2433
-493 -358 2434
-482 -358 2432
-472 -357 2432
-462 -357 2430
-452 -357 2429
-441 -356 2428
-431 -356 2427
-421 -355 2424
-410 -355 2423
-400 -355 2421
-390 -354 2419
-380 -354 2417
-370 -353 2417
-360 -353 2415
-350 -353 2414
-340 -352 2412
-330 -352 2411
-320 -352 2410
-310 -352 2409
-300 -351 2407
-290 -351 2406
-280 -351 2405
-270 -350 2405
-260 -350 2403
-250 -350 2402
-241 -349 2400
-231 -349 2399
-221 -349 2397
-211 -349 2396
-201 -348 2394
-192 -348 2394
-182 -348 2392
-172 -348 2391
-162 -347 2389
-153 -347 2388
-143 -347 2387
-133 -346 2385
-124 -346 2383
-114 -346 2382
-105 -346 2380
-95 -345 2379
-85 -345 2378
-76 -345 2377
-66 -345 2375
-57 -345 2374
-47 -344 2372
-38 -344 2370
-28 -344 2368
-19 -343 2366
-9 -343 2365
0 -343 2363
10 -343 2362
19 -343 2360
28 -342 2359
38 -342 2358
47 -342 2357
57 -342 2355
66 -342 2354
75 -342 2353
85 -341 2350
94 -341 2348
103 -341 2347
113 -341 2345
122 -340 2344
131 -340 2343
141 -340 2341
150 -340 2339
159 -340 2338
168 -340 2337
178 -340 2336
187 -339 2334
196 -339 2333
206 -339 2331
215 -339 2329
224 -339 2328
233 -339 2326
243 -339 2325
252 -339 2324
261 -339 2323
270 -338 2322
280 -338 2320
289 -338 2319
298 -338 2317
307 -338 2316
316 -338 2314
326 -338 2312
335 -338 2310
344 -337 2307
352 -337 2301
360 -335 2293
368 -334 2283
376 -333 2272
382 -330 2256
390 -329 2246
397 -328 2236
406 -327 2230
414 -327 2225
422 -326 2222
431 -326 2219
440 -326 2216
449 -326 2215
458 -326 2216
467 -326 2213
475 -325 2208
483 -324 2201
489 -323 2190
495 -321 2175
501 -319 2161
505 -316 2141
510 -314 2124
514 -311 2101
519 -309 2086
524 -307 2069
528 -304 2052
532 -302 2033
537 -300 2019
541 -298 2004
545 -295 1986
547 -292 1964
552 -290 1950
556 -289 1936
560 -286 1918
564 -284 1904
566 -282 1885
571 -280 1875
574 -278 1856
0 0 0
350 -165 1101
352 -164 1093
356 -164 1089
360 -164 1088
365 -164 1088
371 -164 1090
376 -164 1091
382 -165 1094
388 -166 1096
394 -166 1099
399 -167 1101
405 -167 1104
412 -168 1107
418 -169 1110
424 -169 1112
429 -169 1113
435 -170 1116
441 -170 1118
448 -171 1121
454 -172 1124
461 -173 1128
467 -173 1130
474 -174 1133
480 -174 1136
487 -175 1138
493 -175 1140
500 -176 1143
506 -177 1145
513 -177 1148
520 -178 1152
528 -179 1156
534 -180 1158
541 -180 1161
548 -181 1163
555 -182 1166
561 -182 1167
569 -183 1171
577 -184 1175
584 -184 1178
592 -185 1182
601 -186 1187
609 -187 1192
617 -188 1195
625 -189 1199
633 -190 1203
641 -191 1205
648 -191 1207
653 -191 1204
656 -191 1199
657 -189 1189
660 -189 1184
664 -188 1179
668 -188 1176
674 -188 1174
682 -189 1177
691 -190 1182
699 -191 1185
707 -192 1188
715 -192 1189
722 -193 1191
731 -194 1194
740 -195 1198
0 0 0
0 0 0
0 0 0
759 -194 1186
765 -194 1184
772 -195 1184
784 -196 1193
801 -199 1207
0 0 0
844 -207 1250
853 -208 1252
862 -209 1255
871 -209 1256
892 -213 1276
987 -234 1400
998 -235 1403
1005 -235 1401
1013 -236 1400
-1842 -399 2397
-1837 -400 2412
-1832 -402 2426
-1830 -404 2444
-1828 -406 2462
-1830 -409 2486
-1829 -411 2506
-1823 -413 2519
-1815 -414 2530
-1807 -414 2540
-1797 -415 2548
-1788 -415 2558
0 0 0
0 0 0
0 0 0
0 0 0
0 0 0
-1771 -428 2670
-1767 -430 2688
-1769 -434 2714
0 0 0
0 0 0
-1844 -462 2907
-1844 -465 2933
-1836 -466 2946
-1816 -465 2941
-1795 -463 2933
-1780 -462 2935
-1765 -462 2937
0 0 0
0 0 0
0 0 0
-711 -192 1227
-709 -193 1236
-708 -194 1246
-713 -197 1267
-736 -205 1319
-748 -210 1355
-756 -214 1382
-762 -217 1406
-766 -220 1428
-770 -223 1448
-773 -226 1469
-776 -228 1488
-778 -231 1508
-780 -233 1527
-782 -236 1546
-783 -238 1563
-783 -240 1579
-782 -242 1593
-780 -244 1606
-778 -245 1619
-776 -247 1630
-772 -248 1639
-767 -249 1646
-762 -249 1653
-757 -250 1658
-751 -250 1664
0 0 0
0 0 0
0 0 0
0 0 0
0 0 0
0 0 0
0 0 0
0 0 0
0 0 0
0 0 0
0 0 0
0 0 0
0 0 0
0 0 0
0 0 0
0 0 0
0 0 0
0 0 0
0 0 0
0 0 0
-1972 -819 5578
-1942 -817 5566
-1919 -817 5571
-1896 -817 5577
-1875 -817 5587
-1854 -818 5599
-1836 -821 5621
0 0 0
0 0 0
0 0 0
-695 -327 2248
-689 -329 2261
-682 -330 2272
-687 -337 2321
-685 -341 2351
-685 -345 2384
-680 -348 2403
-673 -349 2415
-666 -351 2427
-657 -352 2434
-648 -352 2440
-638 -352 2442
-629 -352 2445
-619 -352 2446
-608 -352 2447
-598 -352 2447
-587 -352 2446
-577 -351 2446
-567 -351 2445
-556 -351 2444
-545 -350 2442
-535 -350 2441
-524 -349 2438
-513 -349 2436
-503 -348 2435
-493 -348 2435
-483 -348 2435
-472 -348 2434
-462 -347 2432
-452 -347 2431
-442 -347 2430
-431 -346 2429
-421 -346 2426
-411 -345 2425
-400 -345 2422
-390 -344 2421
-380 -344 2420
-370 -344 2420
-360 -344 2418
-350 -343 2418
-340 -343 2416
-330 -343 2413
-320 -342 2412
-310 -342 2410
-300 -342 2409
-290 -341 2408
-280 -341 2408
-270 -341 2408
-261 -341 2407
-251 -341 2405
-241 -340 2402
-231 -340 2401
-221 -339 2399
-211 -339 2397
-201 -339 2396
-192 -339 2395
-182 -338 2393
-172 -338 2392
-163 -338 2391
-153 -337 2389
-143 -337 2389
-134 -337 2388
-124 -337 2386
-114 -337 2384
-105 -336 2383
-95 -336 2381
-85 -336 2379
-76 -336 2379
-66 -335 2377
-57 -335 2376
-47 -335 2374
-38 -335 2373
-28 -335 2371
-19 -334 2369
-9 -334 2368
0 -334 2367
10 -334 2365
19 -333 2363
28 -333 2362
38 -333 2360
47 -333 2359
57 -333 2357
66 -332 2356
75 -332 2354
85 -332 2351
94 -332 2350
103 -331 2348
113 -331 2347
122 -331 2345
131 -331 2344
141 -331 2343
150 -331 2342
159 -331 2341
169 -331 2339
178 -331 2339
187 -330 2337
196 -330 2335
206 -330 2334
215 -330 2332
224 -330 2330
233 -330 2328
243 -329 2327
252 -330 2327
261 -330 2326
271 -329 2325
280 -329 2323
289 -329 2321
298 -329 2319
307 -329 2317
317 -329 2316
326 -329 2314
335 -328 2312
344 -328 2310
353 -328 2304
361 -327 2296
369 -325 2287
376 -324 2276
383 -322 2260
390 -321 2250
398 -319 2241
406 -319 2234
415 -318 2230
423 -318 2226
431 -317 2222
440 -317 2219
449 -317 2218
458 -317 2218
467 -317 2216
476 -317 2212
483 -316 2205
490 -315 2195
496 -313 2181
502 -311 2167
507 -309 2149
512 -306 2131
517 -304 2114
522 -302 2098
527 -300 2083
532 -298 2067
537 -296 2052
542 -294 2038
545 -292 2020
550 -290 2004
553 -287 1986
558 -286 1973
562 -283 1955
566 -282 1942
571 -280 1929
575 -278 1914
580 -277 1904
583 -275 1888
586 -272 1869
356 -163 1120
356 -161 1104
359 -160 1098
363 -160 1096
367 -160 1095
373 -160 1096
378 -161 1096
383 -161 1097
388 -161 1098
394 -162 1101
399 -162 1102
405 -163 1104
411 -163 1106
417 -164 1108
423 -164 1110
428 -164 1111
434 -165 1114
440 -165 1114
446 -166 1117
452 -166 1120
459 -167 1124
466 -168 1128
472 -168 1130
479 -169 1133
485 -169 1134
491 -170 1136
498 -171 1140
505 -171 1143
512 -172 1147
519 -173 1150
527 -174 1156
534 -174 1157
540 -175 1159
547 -175 1161
554 -176 1164
561 -177 1166
569 -178 1171
578 -179 1178
586 -180 1182
594 -181 1187
602 -182 1191
611 -183 1196
618 -183 1198
626 -184 1202
635 -185 1207
642 -186 1209
650 -187 1211
654 -186 1208
656 -185 1200
658 -184 1191
661 -184 1186
665 -183 1181
669 -183 1178
675 -183 1177
683 -184 1180
691 -185 1183
699 -186 1186
707 -186 1188
715 -187 1190
723 -188 1192
0 0 0
743 -190 1204
753 -191 1208
0 0 0
759 -190 1196
762 -189 1190
766 -189 1187
774 -190 1188
784 -191 1193
0 0 0
0 0 0
844 -201 1250
853 -202 1253
863 -203 1256
870 -203 1256
885 -206 1266
986 -228 1399
998 -229 1404
1005 -229 1402
1013 -229 1401
-1853 -390 2413
-1849 -392 2428
-1844 -393 2442
-1843 -395 2462
-1844 -398 2484
-1847 -401 2510
-1842 -403 2525
-1832 -403 2533
-1822 -403 2540
-1809 -403 2544
-1797 -403 2550
-1788 -404 2559
0 0 0
0 0 0
0 0 0
0 0 0
0 0 0
-1768 -416 2667
-1764 -417 2684
-1766 -421 2711
0 0 0
0 0 0
0 0 0
-1837 -450 2922
-1831 -452 2939
-1814 -451 2938
-1793 -449 2931
-1778 -449 2933
-1763 -448 2935
-1751 -448 2943
0 0 0
0 0 0
0 0 0
-708 -187 1235
-707 -188 1244
-708 -190 1259
-724 -196 1299
-739 -201 1339
-750 -206 1371
-755 -209 1394
-761 -212 1418
-765 -215 1440
-769 -218 1462
-772 -221 1481
-775 -224 1503
-777 -226 1522
-780 -229 1542
-780 -231 1558
-780 -233 1574
-780 -235 1590
-779 -237 1604
-777 -238 1617
-775 -240 1629
-772 -241 1639
-767 -242 1647
-762 -242 1654
-757 -243 1659
-751 -243 1665
0 0 0
0 0 0
0 0 0
0 0 0
0 0 0
0 0 0
0 0 0
0 0 0
0 0 0
0 0 0
0 0 0
0 0 0
0 0 0
0 0 0
0 0 0
0 0 0
0 0 0
0 0 0
0 0 0
0 0 0
0 0 0
-1941 -793 5565
-1920 -794 5575
-1898 -794 5583
-1875 -794 5590
-1853 -795 5598
-1834 -797 5617
0 0 0
0 0 0
-704 -318 2247
-695 -318 2251
-690 -320 2265
-683 -321 2275
-684 -326 2311
-685 -331 2351
-684 -335 2382
-679 -338 2402
-673 -340 2416
-666 -341 2428
-657 -342 2435
-648 -342 2440
-638 -342 2443
-629 -343 2447
-619 -343 2448
-609 -342 2449
-599 -342 2450
-588 -342 2449
-577 -342 2448
-567 -341 2447
-556 -341 2446
-546 -340 2444
-535 -340 2442
-524 -340 2441
-514 -339 2438
-503 -339 2437
-493 -338 2437
-483 -338 2437
-473 -338 2437
-462 -338 2435
-452 -337 2434
-442 -337 2433
-432 -337 2431
-421 -336 2429
-411 -336 2427
-401 -335 2425
-390 -335 2423
-380 -335 2423
-370 -334 2422
-360 -334 2421
-350 -334 2421
-340 -334 2418
-330 -333 2416
-320 -333 2414
-310 -332 2413
-300 -332 2411
-290 -332 2411
-280 -332 2410
-271 -332 2410
-261 -331 2409
-251 -331 2407
-241 -331 2404
-231 -330 2402
-221 -330 2401
-211 -330 2399
-202 -330 2399
-192 -329 2399
-182 -329 2397
-172 -329 2395
-163 -329 2394
-153 -328 2391
-143 -328 2390
-134 -328 2389
-124 -327 2387
-114 -327 2385
-105 -327 2384
-95 -327 2382
-86 -326 2381
-76 -326 2380
-66 -326 2380
-57 -326 2378
-47 -326 2377
-38 -326 2376
-28 -325 2375
-19 -325 2373
-9 -325 2373
0 -325 2371
10 -325 2369
19 -324 2367
28 -324 2365
38 -324 2364
47 -324 2363
57 -324 2361
66 -323 2360
75 -323 2358
85 -323 2355
94 -323 2353
103 -323 2352
113 -322 2350
122 -322 2349
132 -322 2348
141 -322 2347
150 -322 2345
159 -322 2344
169 -321 2342
178 -321 2341
187 -321 2339
197 -321 2338
206 -321 2336
215 -321 2335
224 -321 2333
234 -320 2331
243 -320 2330
252 -320 2329
262 -320 2329
271 -320 2327
280 -320 2326
289 -320 2324
298 -320 2321
307 -320 2319
317 -320 2318
326 -319 2316
335 -319 2315
344 -319 2313
353 -319 2307
361 -318 2299
369 -317 2291
377 -315 2279
383 -313 2264
391 -312 2252
398 -311 2244
407 -310 2238
415 -309 2232
423 -309 2229
432 -309 2225
441 -309 2223
450 -308 2221
459 -308 2220
467 -308 2218
476 -308 2214
484 -307 2207
490 -306 2195
497 -304 2183
503 -303 2170
508 -300 2152
513 -299 2138
518 -296 2119
523 -294 2104
528 -292 2088
533 -291 2075
539 -289 2061
544 -287 2047
548 -285 2032
553 -283 2018
557 -281 2001
561 -279 1984
565 -277 1969
570 -276 1957
575 -274 1945
581 -273 1935
585 -271 1920
588 -269 1903
591 -267 1887
592 -264 1863
0 0 0
0 0 0
0 0 0
371 -157 1105
376 -157 1105
380 -157 1103
384 -157 1101
389 -157 1100
394 -157 1100
399 -157 1101
404 -158 1101
409 -158 1102
415 -158 1104
421 -159 1105
426 -159 1106
431 -159 1106
437 -160 1108
444 -160 1113
451 -161 1116
457 -162 1119
464 -162 1123
470 -163 1124
476 -163 1127
483 -164 1131
489 -165 1133
496 -165 1135
504 -166 1141
511 -167 1145
519 -168 1151
527 -169 1156
534 -170 1159
540 -170 1159
546 -170 1161
554 -171 1164
562 -172 1169
569 -173 1172
580 -174 1182
0 0 0
0 0 0
0 0 0
0 0 0
0 0 0
0 0 0
0 0 0
0 0 0
652 -182 1216
656 -182 1212
658 -181 1203
658 -179 1192
661 -179 1187
665 -178 1182
670 -178 1180
676 -179 1180
685 -179 1183
693 -180 1186
701 -181 1190
709 -181 1191
716 -182 1192
723 -183 1194
0 0 0
742 -185 1203
0 0 0
0 0 0
760 -185 1198
763 -184 1193
767 -184 1189
774 -184 1189
784 -185 1193
801 -188 1209
0 0 0
844 -196 1251
855 -197 1256
864 -198 1258
873 -198 1261
891 -201 1276
989 -222 1404
999 -223 1406
1006 -223 1404
1014 -223 1402
0 0 0
0 0 0
0 0 0
0 0 0
0 0 0
0 0 0
-1854 -393 2542
-1840 -393 2545
-1826 -392 2547
-1811 -392 2549
-1799 -392 2554
0 0 0
0 0 0
0 0 0
0 0 0
0 0 0
0 0 0
-1764 -402 2661
-1763 -405 2684
-1766 -408 2712
0 0 0
0 0 0
0 0 0
-1836 -437 2922
-1830 -439 2940
-1813 -438 2939
-1792 -436 2931
-1776 -435 2931
-1761 -435 2934
-1746 -434 2935
0 0 0
0 0 0
0 0 0
-707 -181 1233
-705 -182 1242
-706 -184 1256
-710 -186 1274
-731 -193 1325
-742 -198 1358
-750 -201 1385
-756 -205 1409
-760 -208 1432
-765 -211 1454
-768 -213 1475
-772 -216 1497
-774 -218 1516
-776 -221 1536
-778 -223 1555
-778 -225 1570
-777 -227 1585
-777 -229 1600
-775 -231 1614
-774 -232 1627
-771 -233 1638
-766 -234 1646
-762 -235 1654
-757 -236 1660
-751 -236 1665
0 0 0
0 0 0
0 0 0
0 0 0
0 0 0
0 0 0
0 0 0
0 0 0
0 0 0
0 0 0
0 0 0
0 0 0
0 0 0
0 0 0
0 0 0
0 0 0
0 0 0
0 0 0
0 0 0
0 0 0
0 0 0
-1942 -770 5569
-1921 -771 5580
-1898 -771 5586
-1873 -770 5586
0 0 0
0 0 0
0 0 0
0 0 0
0 0 0
-695 -309 2252
-689 -310 2263
-682 -311 2274
-681 -315 2303
0 0 0
-683 -325 2380
-679 -328 2402
-673 -330 2418
-666 -331 2429
-657 -332 2435
-648 -332 2442
-639 -332 2445
-629 -333 2449
-619 -333 2450
-609 -333 2452
-599 -333 2452
-588 -332 2451
-578 -332 2450
-567 -331 2449
-557 -331 2448
-546 -331 2446
-535 -330 2444
-524 -330 2442
-514 -329 2440
-503 -329 2439
-494 -329 2440
-483 -329 2440
-473 -329 2440
-463 -328 2439
-453 -328 2437
-442 -328 2436
-432 -327 2433
-421 -327 2431
-411 -326 2429
-401 -326 2427
-390 -325 2424
-380 -325 2424
-370 -325 2424
-361 -325 2424
-351 -324 2423
-340 -324 2421
-330 -324 2419
-320 -323 2417
-310 -323 2416
-300 -323 2416
-291 -323 2415
-281 -322 2414
-271 -322 2414
-261 -322 2412
-251 -322 2409
-241 -321 2406
-231 -321 2404
-221 -320 2402
-211 -320 2400
-202 -320 2400
-192 -320 2400
-182 -320 2399
-172 -319 2397
-163 -319 2396
-153 -319 2393
-143 -319 2393
-134 -318 2391
-124 -318 2389
-114 -318 2387
-105 -318 2387
-95 -317 2385
-86 -317 2384
-76 -317 2382
-66 -317 2382
-57 -317 2381
-47 -316 2379
-38 -316 2378
-28 -316 2377
-19 -316 2376
-9 -316 2375
0 -316 2374
10 -316 2373
19 -315 2371
28 -315 2369
38 -315 2367
47 -315 2366
57 -314 2364
66 -314 2362
76 -314 2361
85 -314 2358
94 -313 2356
104 -313 2355
113 -313 2353
122 -313 2351
132 -313 2350
141 -313 2349
150 -313 2347
160 -312 2346
169 -312 2344
178 -312 2343
187 -312 2341
197 -312 2340
206 -312 2338
215 -312 2337
224 -311 2335
234 -311 2334
243 -311 2332
252 -311 2331
262 -311 2331
271 -311 2329
280 -311 2328
289 -311 2326
299 -311 2324
308 -311 2322
317 -311 2321
326 -310 2319
336 -310 2318
345 -310 2316
353 -310 2311
362 -309 2303
370 -308 2294
377 -306 2283
384 -304 2267
391 -303 2257
399 -302 2246
407 -301 2239
415 -300 2234
424 -300 2231
433 -300 2229
442 -300 2228
450 -300 2226
460 -300 2226
468 -300 2223
477 -300 2219
485 -299 2213
491 -298 2202
498 -296 2188
504 -294 2175
509 -292 2158
514 -290 2142
519 -288 2125
525 -286 2111
530 -284 2095
535 -283 2081
540 -281 2067
545 -279 2054
551 -278 2041
555 -276 2024
559 -274 2009
563 -272 1991
567 -270 1976
573 -269 1965
578 -267 1953
582 -266 1940
587 -264 1929
592 -263 1916
595 -261 1899
598 -259 1884
601 -257 1867
605 -255 1853
610 -254 1843
616 -253 1837
622 -253 1832
629 -252 1826
635 -252 1820
641 -251 1815
648 -251 1811
655 -251 1808
661 -250 1802
0 0 0
0 0 0
0 0 0
0 0 0
0 0 0
0 0 0
0 0 0
0 0 0
0 0 0
0 0 0
0 0 0
0 0 0
0 0 0
0 0 0
0 0 0
0 0 0
0 0 0
0 0 0
0 0 0
0 0 0
0 0 0
0 0 0
0 0 0
0 0 0
0 0 0
0 0 0
0 0 0
0 0 0
0 0 0
0 0 0
0 0 0
0 0 0
0 0 0
0 0 0
768 -208 1432
769 -207 1421
0 0 0
659 -174 1195
663 -174 1190
667 -174 1186
672 -173 1183
678 -174 1183
685 -174 1185
693 -175 1187
701 -176 1190
708 -176 1191
715 -177 1192
724 -177 1195
735 -179 1202
743 -179 1205
0 0 0
759 -181 1209
760 -180 1200
763 -179 1194
768 -179 1191
775 -179 1190
785 -180 1195
0 0 0
0 0 0
848 -191 1257
858 -192 1261
865 -192 1261
875 -193 1264
889 -195 1274
989 -215 1405
1000 -216 1408
1007 -216 1406
1015 -217 1404
0 0 0
0 0 0
0 0 0
0 0 0
0 0 0
0 0 0
0 0 0
-1846 -382 2554
-1831 -382 2555
-1815 -381 2555
-1801 -380 2558
-1791 -381 2565
0 0 0
0 0 0
0 0 0
0 0 0
0 0 0
-1757 -389 2653
-1761 -392 2682
-1764 -396 2710
0 0 0
0 0 0
0 0 0
-1837 -424 2926
-1833 -426 2945
-1816 -425 2945
-1794 -423 2936
-1777 -422 2935
-1762 -422 2936
-1748 -421 2939
0 0 0
0 0 0
0 0 0
0 0 0
-703 -176 1239
-704 -178 1252
-706 -180 1267
-719 -184 1303
-734 -190 1344
-743 -194 1373
-749 -197 1398
-755 -200 1423
-761 -203 1447
-765 -206 1470
-769 -209 1492
-772 -211 1512
-774 -214 1532
-775 -216 1549
-775 -218 1566
-775 -220 1582
-775 -222 1597
-774 -223 1611
-772 -225 1625
-770 -226 1636
-766 -227 1646
-762 -228 1654
-757 -228 1660
-751 -229 1666
-746 -230 1672
0 0 0
0 0 0
0 0 0
0 0 0
0 0 0
0 0 0
0 0 0
0 0 0
0 0 0
0 0 0
0 0 0
0 0 0
0 0 0
0 0 0
0 0 0
0 0 0
0 0 0
0 0 0
0 0 0
0 0 0
0 0 0
0 0 0
0 0 0
0 0 0
0 0 0
0 0 0
0 0 0
0 0 0
0 0 0
-695 -300 2253
-690 -301 2267
-683 -302 2276
-684 -307 2313
-684 -312 2350
-683 -315 2380
-679 -318 2404
-673 -320 2418
-666 -321 2430
-657 -322 2437
-648 -322 2443
-640 -323 2450
-630 -323 2453
-620 -323 2454
-610 -323 2455
-599 -323 2455
-589 -323 2455
-578 -322 2454
-568 -322 2453
-557 -322 2452
-547 -321 2451
-536 -321 2449
-525 -320 2447
-515 -320 2444
-504 -319 2443
-494 -319 2442
-484 -319 2442
-473 -319 2441
-463 -318 2440
-453 -318 2440
-443 -318 2439
-432 -318 2437
-422 -317 2435
-412 -317 2433
-401 -316 2431
-391 -316 2427
-381 -316 2427
-371 -315 2425
-361 -315 2425
-351 -315 2424
-341 -315 2423
-330 -314 2421
-320 -314 2420
-310 -314 2418
-301 -313 2418
-291 -313 2418
-281 -313 2417
-271 -313 2417
-261 -313 2415
-251 -312 2412
-241 -312 2409
-231 -311 2406
-221 -311 2405
-211 -311 2402
-202 -310 2402
-192 -310 2401
-182 -310 2400
-173 -310 2399
-163 -310 2398
-153 -309 2396
-143 -309 2395
-134 -309 2393
-124 -309 2392
-114 -308 2390
-105 -308 2390
-95 -308 2387
-86 -308 2386
-76 -308 2385
-67 -308 2385
-57 -307 2382
-47 -307 2381
-38 -307 2381
-28 -307 2379
-19 -307 2378
-9 -307 2377
0 -306 2376
10 -306 2375
19 -306 2373
28 -306 2371
38 -306 2370
47 -305 2368
57 -305 2366
66 -305 2363
76 -305 2362
85 -304 2360
94 -304 2359
104 -304 2357
113 -304 2355
122 -304 2354
132 -304 2353
141 -304 2352
150 -303 2350
160 -303 2349
169 -303 2347
178 -303 2346
188 -303 2344
197 -303 2343
206 -303 2341
215 -303 2340
225 -302 2338
234 -302 2337
243 -302 2335
252 -302 2333
262 -302 2333
271 -302 2332
280 -302 2330
290 -302 2329
299 -302 2326
308 -301 2324
317 -301 2323
326 -301 2321
336 -301 2320
345 -301 2319
354 -301 2313
362 -300 2305
370 -299 2296
377 -297 2285
384 -295 2270
392 -294 2259
399 -293 2247
407 -292 2242
415 -292 2236
424 -292 2235
433 -291 2232
442 -291 2230
451 -291 2229
460 -291 2228
469 -291 2226
477 -291 2220
485 -290 2215
492 -289 2204
498 -287 2192
504 -286 2177
509 -284 2161
515 -282 2147
520 -280 2129
525 -278 2115
530 -276 2099
536 -275 2085
540 -273 2069
546 -271 2056
551 -270 2044
556 -268 2028
560 -266 2011
564 -264 1997
569 -262 1982
574 -261 1969
579 -260 1958
584 -258 1947
589 -257 1935
593 -256 1922
597 -254 1907
600 -252 1891
605 -251 1879
609 -249 1867
614 -248 1855
619 -247 1847
625 -246 1839
630 -245 1831
635 -244 1823
641 -244 1816
647 -243 1809
653 -242 1803
658 -242 1795
664 -241 1788
668 -240 1779
673 -239 1769
679 -238 1763
684 -238 1756
688 -237 1746
691 -235 1732
695 -234 1722
698 -233 1711
703 -232 1704
706 -231 1692
711 -230 1683
713 -228 1669
715 -227 1657
718 -225 1646
721 -224 1634
724 -223 1624
727 -222 1612
731 -221 1604
735 -220 1596
738 -219 1585
741 -218 1575
743 -216 1564
746 -215 1554
748 -214 1542
750 -213 1530
753 -211 1520
755 -210 1509
758 -209 1500
760 -208 1490
763 -207 1481
766 -206 1472
770 -206 1466
774 -205 1458
775 -204 1447
778 -203 1438
0 0 0
659 -169 1195
663 -169 1190
667 -168 1186
672 -168 1184
679 -169 1185
686 -169 1187
694 -170 1190
702 -171 1192
709 -171 1192
716 -171 1193
725 -172 1198
736 -173 1204
745 -174 1208
755 -175 1213
761 -176 1213
762 -175 1203
765 -174 1197
769 -174 1193
776 -174 1193
786 -175 1198
0 0 0
830 -183 1243
847 -185 1257
857 -186 1260
866 -187 1263
877 -188 1268
890 -189 1276
991 -209 1408
1002 -210 1411
1008 -210 1408
1016 -211 1407
0 0 0
0 0 0
0 0 0
0 0 0
0 0 0
0 0 0
0 0 0
0 0 0
-1836 -371 2563
-1816 -369 2557
-1801 -369 2559
-1791 -369 2567
-1783 -370 2577
0 0 0
0 0 0
0 0 0
0 0 0
-1757 -377 2653
-1764 -381 2687
-1767 -384 2716
0 0 0
0 0 0
0 0 0
-1839 -411 2929
-1833 -413 2947
-1817 -412 2948
-1795 -410 2939
-1777 -409 2936
-1760 -408 2934
-1745 -408 2936
-1734 -408 2945
0 0 0
0 0 0
0 0 0
-701 -170 1236
-701 -172 1248
-704 -173 1264
-709 -176 1285
-726 -182 1330
-736 -186 1361
-745 -190 1390
-750 -193 1414
-757 -196 1440
-761 -199 1463
-766 -202 1487
-769 -204 1508
-772 -207 1528
-772 -208 1544
-773 -211 1562
-773 -212 1578
-773 -214 1594
-772 -216 1608
-771 -217 1622
-768 -219 1634
-765 -220 1645
-761 -221 1653
-756 -221 1659
-751 -222 1666
-746 -222 1672
-741 -223 1679
0 0 0
0 0 0
0 0 0
0 0 0
0 0 0
0 0 0
0 0 0
0 0 0
0 0 0
0 0 0
0 0 0
0 0 0
0 0 0
0 0 0
0 0 0
0 0 0
0 0 0
0 0 0
0 0 0
0 0 0
0 0 0
0 0 0
0 0 0
0 0 0
0 0 0
0 0 0
0 0 0
-705 -291 2253
-696 -291 2255
-690 -292 2267
-683 -293 2279
-682 -297 2308
-684 -302 2348
-681 -305 2375
-679 -308 2402
-672 -310 2417
-666 -311 2430
-658 -312 2439
-649 -313 2446
-640 -313 2452
-630 -313 2455
-620 -313 2457
-610 -313 2458
-600 -313 2458
-589 -313 2457
-579 -312 2456
-568 -312 2455
-558 -312 2455
-547 -311 2453
-536 -311 2451
-526 -311 2449
-515 -310 2448
-504 -310 2445
-494 -310 2445
-484 -309 2444
-474 -309 2444
-463 -309 2442
-453 -309 2442
-443 -308 2440
-432 -308 2439
-422 -307 2436
-412 -307 2434
-401 -307 2432
-391 -306 2430
-381 -306 2428
-371 -306 2427
-361 -306 2428
-351 -305 2427
-341 -305 2426
-331 -305 2424
-321 -304 2423
-311 -304 2422
-301 -304 2421
-291 -304 2421
-281 -304 2419
-271 -303 2418
-261 -303 2416
-251 -303 2413
-241 -302 2410
-231 -302 2407
-221 -301 2406
-212 -301 2405
-202 -301 2404
-192 -301 2403
-182 -301 2403
-173 -300 2401
-163 -300 2399
-153 -300 2396
-143 -300 2395
-134 -299 2394
-124 -299 2394
-115 -299 2392
-105 -299 2393
-95 -299 2391
-86 -299 2389
-76 -298 2387
-67 -298 2387
-57 -298 2385
-47 -298 2383
-38 -298 2383
-28 -298 2382
-19 -297 2380
-9 -297 2379
0 -297 2378
10 -297 2377
19 -297 2375
29 -297 2374
38 -296 2373
47 -296 2371
57 -296 2369
66 -296 2367
76 -296 2366
85 -295 2364
94 -295 2363
104 -295 2360
113 -295 2359
122 -295 2357
132 -294 2355
141 -294 2354
150 -294 2352
160 -294 2352
169 -294 2350
178 -294 2349
188 -294 2347
197 -294 2346
206 -293 2343
216 -293 2342
225 -293 2340
234 -293 2339
243 -293 2338
253 -293 2337
262 -293 2336
271 -293 2335
281 -293 2334
290 -293 2332
299 -293 2329
308 -292 2327
318 -292 2326
327 -292 2324
336 -292 2323
345 -292 2322
354 -292 2316
362 -291 2308
370 -290 2298
378 -288 2288
385 -287 2273
392 -285 2263
400 -284 2253
408 -284 2247
416 -283 2240
424 -283 2237
433 -282 2233
442 -283 2233
451 -282 2231
460 -282 2230
469 -282 2228
478 -282 2225
486 -282 2219
492 -280 2208
499 -279 2197
505 -277 2181
510 -275 2163
515 -274 2149
521 -272 2133
526 -270 2120
531 -268 2102
536 -266 2088
541 -265 2074
546 -263 2059
552 -262 2047
557 -260 2035
561 -258 2017
565 -257 2001
570 -255 1988
574 -253 1972
580 -252 1962
584 -251 1949
589 -249 1937
594 -248 1926
599 -247 1914
603 -245 1900
607 -244 1887
612 -242 1875
617 -241 1865
622 -240 1856
627 -239 1846
632 -238 1836
636 -237 1825
641 -236 1816
645 -235 1805
650 -234 1797
655 -233 1787
659 -232 1777
664 -231 1768
669 -230 1760
674 -229 1751
678 -228 1740
682 -227 1732
686 -226 1720
691 -225 1714
695 -224 1703
699 -223 1694
702 -222 1683
706 -221 1673
710 -220 1663
714 -219 1654
717 -218 1644
721 -217 1634
724 -216 1623
728 -215 1615
731 -214 1605
735 -213 1597
738 -212 1587
741 -211 1577
743 -210 1565
746 -209 1555
749 -208 1545
751 -206 1533
754 -205 1523
756 -204 1513
759 -203 1504
762 -202 1495
765 -201 1486
768 -200 1477
772 -200 1469
775 -199 1461
778 -198 1452
780 -197 1443
0 0 0
0 0 0
663 -163 1191
667 -163 1188
673 -163 1186
679 -164 1186
687 -164 1188
695 -165 1192
703 -165 1194
710 -166 1195
717 -166 1195
726 -167 1200
737 -168 1206
746 -169 1210
756 -170 1216
764 -171 1217
763 -169 1205
766 -169 1199
770 -169 1195
776 -169 1193
785 -169 1196
0 0 0
0 0 0
847 -179 1257
856 -180 1260
866 -181 1264
876 -182 1267
895 -184 1283
988 -202 1404
1002 -204 1412
1009 -204 1409
1017 -204 1408
0 0 0
0 0 0
0 0 0
0 0 0
0 0 0
0 0 0
0 0 0
0 0 0
0 0 0
-1815 -357 2558
-1801 -357 2559
-1793 -357 2570
-1785 -358 2581
-1777 -359 2592
0 0 0
0 0 0
0 0 0
0 0 0
-1767 -369 2694
-1771 -373 2723
-1787 -379 2772
0 0 0
0 0 0
-1841 -399 2934
-1835 -400 2951
-1820 -400 2954
-1798 -398 2945
-1779 -397 2940
-1762 -396 2938
-1747 -395 2940
-1734 -395 2945
0 0 0
0 0 0
0 0 0
-701 -165 1236
-700 -166 1246
-701 -167 1260
-703 -169 1276
-715 -173 1309
-729 -178 1348
-739 -182 1379
-745 -185 1404
-752 -188 1432
-757 -191 1456
-763 -194 1481
-766 -197 1502
-769 -199 1523
-770 -201 1541
-771 -203 1558
-770 -205 1573
-771 -207 1591
-771 -209 1606
-769 -210 1619
-767 -211 1632
-764 -213 1643
-760 -213 1652
-756 -214 1660
-751 -215 1667
-745 -215 1672
-740 -216 1678
-735 -216 1686
0 0 0
0 0 0
-720 -218 1706
0 0 0
0 0 0
0 0 0
0 0 0
0 0 0
0 0 0
0 0 0
0 0 0
0 0 0
0 0 0
0 0 0
0 0 0
0 0 0
0 0 0
0 0 0
0 0 0
0 0 0
0 0 0
0 0 0
0 0 0
0 0 0
0 0 0
0 0 0
0 0 0
-697 -282 2259
-690 -283 2268
-683 -284 2279
-680 -286 2302
-684 -292 2350
-680 -295 2372
-678 -298 2401
-672 -300 2416
-665 -301 2428
-658 -302 2440
-649 -303 2448
-641 -303 2455
-631 -304 2458
-621 -304 2460
-611 -304 2461
-600 -303 2461
-590 -303 2461
-579 -303 2460
-569 -303 2459
-558 -302 2458
-548 -302 2457
-537 -301 2455
-527 -301 2455
-516 -301 2452
-505 -300 2451
-495 -300 2450
-484 -300 2448
-474 -299 2447
-464 -299 2446
-454 -299 2445
-443 -298 2442
-433 -298 2441
-422 -298 2438
-412 -297 2435
-401 -297 2434
-391 -297 2432
-381 -296 2431
-371 -296 2431
-361 -296 2430
-351 -296 2429
-341 -295 2428
-331 -295 2426
-321 -295 2425
-311 -295 2425
-301 -295 2424
-291 -294 2424
-281 -294 2422
-271 -294 2420
-261 -293 2417
-251 -293 2415
-241 -293 2412
-231 -292 2409
-221 -292 2408
-212 -292 2407
-202 -292 2407
-192 -291 2406
-183 -291 2406
-173 -291 2403
-163 -291 2401
-153 -290 2398
-144 -290 2398
-134 -290 2396
-124 -290 2396
-115 -290 2395
-105 -290 2396
-95 -289 2393
-86 -289 2392
-76 -289 2390
-67 -289 2390
-57 -289 2387
-47 -288 2386
-38 -288 2385
-28 -288 2383
-19 -288 2382
-9 -288 2381
0 -288 2379
10 -288 2379
19 -287 2378
29 -287 2377
38 -287 2376
47 -287 2375
57 -287 2373
66 -287 2370
76 -286 2369
85 -286 2366
94 -286 2365
104 -286 2364
113 -286 2362
123 -286 2360
132 -285 2359
141 -285 2356
151 -285 2354
160 -285 2353
169 -285 2352
179 -285 2350
188 -285 2349
197 -285 2348
206 -284 2346
216 -284 2345
225 -284 2344
234 -284 2343
244 -284 2342
253 -284 2341
262 -284 2339
272 -284 2338
281 -284 2336
290 -284 2334
299 -283 2331
308 -283 2329
318 -283 2328
327 -283 2326
336 -283 2326
346 -283 2325
354 -282 2319
362 -282 2311
370 -281 2301
378 -279 2290
385 -278 2275
393 -277 2266
400 -276 2256
408 -275 2249
416 -274 2242
425 -274 2239
433 -274 2236
442 -274 2235
451 -274 2233
460 -274 2232
469 -274 2231
478 -273 2227
486 -273 2222
493 -272 2211
500 -270 2199
505 -269 2183
511 -267 2169
516 -265 2152
521 -263 2137
527 -262 2124
532 -260 2106
537 -258 2091
542 -257 2076
547 -255 2062
552 -254 2049
557 -252 2033
561 -250 2018
566 -248 2003
570 -247 1989
576 -246 1978
580 -244 1964
585 -243 1953
590 -242 1941
595 -240 1929
600 -239 1917
604 -238 1903
608 -236 1890
612 -235 1878
617 -234 1868
623 -233 1860
628 -232 1850
633 -231 1841
637 -230 1828
641 -229 1818
645 -227 1806
650 -226 1796
654 -225 1786
658 -224 1775
663 -223 1766
667 -222 1756
672 -221 1747
676 -220 1736
680 -219 1727
683 -218 1715
688 -217 1706
692 -216 1697
696 -215 1688
700 -214 1678
705 -214 1670
709 -213 1661
712 -211 1650
716 -211 1641
719 -210 1631
722 -209 1621
726 -208 1612
730 -207 1603
734 -206 1594
737 -205 1584
740 -204 1574
743 -203 1564
746 -202 1554
749 -201 1545
752 -200 1536
755 -199 1526
759 -198 1518
762 -197 1509
765 -196 1500
768 -196 1491
771 -195 1482
775 -194 1475
778 -193 1467
780 -192 1457
783 -191 1449
0 0 0
0 0 0
663 -158 1192
668 -158 1189
673 -158 1187
679 -158 1186
686 -159 1188
695 -160 1192
703 -160 1195
710 -161 1196
717 -161 1196
0 0 0
738 -163 1209
745 -164 1210
0 0 0
0 0 0
0 0 0
764 -163 1197
770 -163 1195
777 -164 1195
788 -165 1201
0 0 0
0 0 0
846 -173 1257
856 -174 1260
866 -175 1264
876 -176 1268
897 -179 1286
992 -197 1411
1003 -197 1414
1010 -198 1412
1018 -198 1410
0 0 0
0 0 0
0 0 0
0 0 0
0 0 0
0 0 0
0 0 0
0 0 0
0 0 0
-1820 -346 2566
-1803 -345 2563
-1793 -346 2571
-1783 -346 2580
-1778 -347 2594
0 0 0
0 0 0
0 0 0
0 0 0
-1768 -357 2696
-1771 -360 2724
-1786 -366 2772
0 0 0
0 0 0
-1838 -385 2930
-1832 -386 2948
-1820 -387 2955
-1799 -385 2947
-1780 -384 2942
-1761 -382 2938
-1746 -382 2940
-1731 -381 2941
0 0 0
0 0 0
0 0 0
0 0 0
-699 -160 1244
-700 -162 1259
-700 -163 1271
-705 -165 1292
-722 -171 1336
-733 -175 1369
-742 -178 1399
-748 -181 1425
-754 -184 1451
-759 -187 1475
-764 -190 1498
-767 -192 1520
-768 -194 1538
-769 -196 1555
-769 -198 1571
-769 -200 1587
-768 -201 1602
-768 -203 1617
-765 -204 1629
-763 -205 1641
-760 -206 1651
-755 -207 1659
-750 -208 1666
-745 -208 1672
-740 -208 1678
-734 -209 1684
-730 -210 1692
-726 -211 1702
-720 -211 1706
-712 -211 1708
-703 -210 1704
-697 -211 1709
-690 -211 1712
-684 -211 1717
-678 -212 1723
-676 -213 1738
-667 -213 1735
-660 -212 1736
-650 -212 1733
-640 -211 1725
-628 -209 1714
-620 -209 1713
-613 -209 1715
-609 -210 1728
0 0 0
-600 -212 1746
0 0 0
0 0 0
0 0 0
0 0 0
0 0 0
0 0 0
0 0 0
0 0 0
-690 -273 2269
-683 -274 2279
-679 -276 2298
-675 -279 2320
-678 -284 2366
-677 -288 2400
-672 -290 2416
-666 -291 2433
-658 -292 2444
-650 -293 2451
-641 -294 2458
-631 -294 2461
-622 -294 2463
-611 -294 2464
-601 -293 2463
-590 -293 2462
-579 -293 2461
-569 -293 2461
-558 -292 2459
-548 -292 2459
-537 -292 2458
-527 -292 2458
-517 -291 2456
-506 -291 2455
-496 -291 2454
-485 -290 2452
-475 -290 2450
-464 -289 2448
-454 -289 2446
-443 -289 2444
-433 -288 2441
-422 -288 2439
-412 -288 2438
-402 -287 2436
-391 -287 2434
-381 -287 2434
-372 -287 2434
-361 -286 2433
-351 -286 2431
-341 -286 2430
-331 -286 2429
-321 -285 2427
-311 -285 2426
-301 -285 2425
-291 -285 2424
-281 -284 2423
-271 -284 2422
-261 -284 2420
-252 -284 2419
-242 -283 2416
-232 -283 2414
-222 -283 2412
-212 -282 2411
-202 -282 2409
-192 -282 2408
-183 -282 2407
-173 -282 2405
-163 -281 2403
-153 -281 2401
-144 -281 2400
-134 -281 2400
-124 -281 2400
-115 -281 2399
-105 -281 2399
-96 -280 2397
-86 -280 2395
-76 -280 2394
-67 -280 2394
-57 -280 2392
-48 -279 2389
-38 -279 2388
-28 -279 2385
-19 -279 2383
-9 -278 2382
0 -278 2382
10 -278 2381
19 -278 2381
29 -278 2379
38 -278 2379
47 -278 2377
57 -278 2375
66 -277 2373
76 -277 2371
85 -277 2369
95 -277 2367
104 -277 2365
113 -276 2364
123 -276 2362
132 -276 2360
141 -276 2358
151 -276 2356
160 -276 2356
169 -276 2354
179 -276 2353
188 -275 2351
197 -275 2350
207 -275 2349
216 -275 2348
225 -275 2346
235 -275 2345
244 -275 2344
253 -275 2343
263 -275 2342
272 -275 2341
281 -275 2340
290 -275 2337
299 -274 2334
309 -274 2332
318 -274 2331
327 -274 2330
337 -274 2329
346 -274 2328
355 -273 2322
363 -273 2314
370 -271 2303
378 -270 2293
385 -269 2278
393 -268 2268
400 -267 2259
408 -266 2251
416 -265 2244
425 -265 2239
433 -264 2235
442 -264 2234
451 -264 2233
461 -265 2234
470 -265 2233
478 -264 2229
486 -264 2224
494 -263 2215
500 -262 2202
506 -260 2187
512 -259 2175
517 -257 2158
523 -255 2144
528 -253 2126
532 -252 2109
537 -250 2093
542 -248 2078
547 -247 2064
553 -246 2052
558 -244 2037
562 -242 2022
567 -241 2008
572 -239 1994
576 -238 1979
581 -236 1966
586 -235 1954
591 -234 1943
596 -233 1932
601 -232 1921
605 -230 1908
610 -229 1896
614 -228 1884
619 -227 1873
624 -226 1864
629 -225 1855
634 -224 1844
638 -222 1831
642 -221 1820
646 -220 1808
650 -219 1798
655 -218 1788
659 -217 1777
664 -216 1768
667 -215 1756
672 -214 1747
675 -213 1736
680 -212 1727
684 -211 1716
688 -210 1707
692 -209 1697
696 -208 1687
699 -207 1677
704 -206 1669
708 -205 1660
712 -205 1651
715 -204 1641
719 -203 1632
723 -202 1622
726 -201 1612
730 -200 1604
733 -199 1594
736 -198 1584
740 -197 1575
742 -196 1564
746 -195 1555
750 -194 1547
753 -194 1538
756 -193 1529
759 -192 1520
762 -191 1511
766 -190 1503
769 -189 1494
772 -189 1485
775 -188 1477
779 -187 1469
780 -186 1458
784 -185 1450
0 0 0
0 0 0
664 -153 1194
668 -153 1190
673 -153 1188
679 -153 1187
686 -153 1188
695 -154 1193
703 -155 1195
711 -155 1197
718 -156 1198
728 -157 1204
739 -158 1211
746 -159 1212
756 -159 1217
762 -160 1216
762 -158 1205
765 -158 1199
772 -158 1198
778 -158 1198
789 -159 1203
0 0 0
0 0 0
848 -168 1260
856 -168 1261
866 -169 1265
877 -170 1270
902 -174 1294
994 -190 1414
1003 -191 1414
1011 -191 1413
1017 -191 1410
0 0 0
0 0 0
0 0 0
0 0 0
0 0 0
0 0 0
0 0 0
0 0 0
0 0 0
-1825 -335 2573
-1806 -334 2569
-1795 -334 2575
-1788 -335 2587
0 0 0
0 0 0
-1765 -338 2622
0 0 0
0 0 0
-1765 -345 2692
-1767 -347 2719
-1783 -353 2769
0 0 0
0 0 0
-1835 -371 2927
-1833 -373 2950
-1821 -374 2958
-1801 -372 2952
-1781 -371 2945
-1763 -370 2943
-1747 -369 2942
-1731 -369 2943
0 0 0
0 0 0
0 0 0
0 0 0
-698 -154 1243
-697 -155 1253
-698 -157 1267
-698 -158 1279
-710 -162 1314
-727 -167 1358
-736 -171 1389
-745 -174 1420
-750 -177 1444
-755 -180 1468
-760 -182 1491
-764 -185 1515
-766 -187 1534
-768 -189 1553
-768 -191 1569
-768 -192 1585
-768 -194 1601
-766 -196 1615
-765 -197 1628
-762 -198 1640
-759 -199 1650
-755 -200 1659
-750 -200 1666
-745 -201 1672
-739 -201 1678
-734 -202 1684
-729 -202 1691
-725 -203 1700
-719 -204 1705
-711 -203 1705
-702 -203 1703
-696 -203 1707
-689 -203 1711
-684 -204 1717
-680 -205 1727
-676 -206 1738
-668 -206 1739
-659 -205 1736
-650 -204 1732
-638 -203 1721
-627 -202 1713
-618 -201 1710
-611 -201 1711
0 0 0
0 0 0
0 0 0
0 0 0
-586 -205 1751
-577 -204 1748
-567 -203 1741
0 0 0
0 0 0
0 0 0
-700 -264 2270
-689 -264 2269
-683 -265 2279
-677 -266 2292
0 0 0
-676 -274 2360
-677 -278 2399
-671 -280 2416
-665 -281 2432
-658 -282 2442
-650 -283 2452
-642 -284 2460
-632 -284 2463
-622 -284 2465
-612 -284 2466
-601 -284 2466
-591 -283 2465
-580 -283 2464
-569 -283 2463
-559 -283 2462
-548 -282 2462
-538 -282 2461
-527 -282 2460
-517 -282 2459
-507 -281 2458
-496 -281 2456
-486 -281 2455
-475 -280 2452
-465 -280 2451
-454 -280 2449
-443 -279 2446
-433 -279 2443
-422 -278 2440
-412 -278 2439
-402 -277 2437
-392 -277 2437
-382 -277 2436
-372 -277 2437
-362 -277 2436
-352 -277 2435
-341 -276 2432
-331 -276 2431
-321 -276 2429
-311 -275 2428
-301 -275 2427
-291 -275 2426
-281 -275 2425
-272 -275 2425
-262 -274 2422
-252 -274 2420
-242 -274 2419
-232 -273 2416
-222 -273 2415
-212 -273 2415
-202 -273 2413
-193 -273 2411
-183 -272 2410
-173 -272 2408
-163 -272 2405
-153 -272 2404
-144 -271 2403
-134 -271 2402
-124 -271 2402
-115 -271 2400
-105 -271 2401
-96 -271 2399
-86 -271 2397
-76 -270 2396
-67 -270 2395
-57 -270 2394
-48 -270 2392
-38 -270 2391
-28 -270 2389
-19 -269 2386
-9 -269 2385
0 -269 2384
10 -269 2383
19 -269 2383
29 -269 2381
38 -269 2381
48 -269 2379
57 -268 2378
66 -268 2375
76 -268 2375
85 -268 2372
95 -268 2370
104 -267 2368
113 -267 2367
123 -267 2365
132 -267 2363
141 -267 2362
151 -267 2360
160 -267 2359
169 -266 2357
179 -266 2356
188 -266 2355
198 -266 2354
207 -266 2353
216 -266 2352
225 -266 2349
235 -266 2348
244 -266 2348
254 -266 2346
263 -266 2345
272 -266 2344
281 -266 2342
291 -265 2340
300 -265 2337
309 -265 2335
318 -265 2333
328 -265 2332
337 -265 2332
346 -265 2331
355 -264 2326
363 -264 2317
371 -263 2307
379 -261 2296
386 -260 2282
393 -259 2271
401 -258 2262
409 -257 2253
417 -256 2247
425 -256 2241
434 -256 2238
442 -255 2235
451 -255 2233
461 -256 2234
470 -256 2233
478 -255 2230
486 -255 2225
494 -254 2215
501 -253 2205
506 -251 2190
513 -250 2178
518 -248 2161
524 -247 2148
528 -245 2129
533 -244 2114
538 -242 2096
543 -240 2082
548 -239 2067
552 -237 2051
558 -236 2038
562 -234 2021
567 -233 2008
572 -231 1996
576 -230 1981
582 -229 1970
587 -227 1958
591 -226 1946
597 -225 1935
602 -224 1924
606 -223 1910
610 -222 1899
615 -220 1887
619 -219 1873
624 -218 1865
629 -217 1855
634 -216 1845
638 -215 1833
642 -214 1822
647 -213 1811
651 -212 1800
655 -211 1790
659 -210 1779
664 -209 1769
668 -208 1758
672 -207 1748
676 -206 1737
680 -205 1727
683 -204 1716
687 -203 1706
691 -202 1696
696 -201 1688
700 -200 1678
704 -199 1670
709 -199 1662
712 -198 1652
716 -197 1642
719 -196 1632
722 -195 1622
726 -194 1612
730 -193 1604
733 -192 1595
737 -191 1586
741 -191 1577
744 -190 1567
747 -189 1558
750 -188 1549
754 -187 1540
757 -186 1531
760 -185 1522
763 -185 1513
766 -184 1504
769 -183 1495
773 -182 1487
776 -182 1479
779 -181 1470
781 -180 1460
784 -179 1451
0 0 0
0 0 0
664 -148 1195
668 -148 1191
674 -148 1189
679 -148 1188
687 -149 1191
696 -149 1194
703 -150 1196
710 -150 1197
718 -151 1199
728 -152 1205
737 -152 1209
746 -153 1212
755 -154 1216
0 0 0
762 -153 1205
766 -153 1201
773 -153 1201
780 -153 1201
792 -155 1208
0 0 0
0 0 0
847 -162 1259
856 -163 1261
866 -163 1265
878 -165 1271
0 0 0
996 -184 1418
1004 -185 1416
1012 -185 1415
1017 -185 1411
0 0 0
0 0 0
0 0 0
0 0 0
0 0 0
0 0 0
0 0 0
0 0 0
0 0 0
0 0 0
-1809 -323 2574
-1795 -323 2577
-1786 -323 2586
-1778 -324 2597
-1770 -324 2607
0 0 0
0 0 0
0 0 0
-1767 -333 2697
-1769 -335 2723
-1780 -340 2765
0 0 0
0 0 0
-1831 -357 2921
-1831 -360 2948
-1822 -361 2960
-1804 -360 2957
-1784 -358 2951
-1765 -357 2947
-1748 -356 2945
-1732 -356 2945
-1720 -356 2953
0 0 0
0 0 0
0 0 0
0 0 0
-695 -149 1250
-697 -151 1265
-695 -152 1274
-695 -153 1287
-717 -159 1340
-734 -164 1386
-742 -167 1414
-748 -170 1440
-753 -173 1464
-758 -176 1489
-762 -178 1511
-764 -180 1531
-766 -182 1550
-766 -184 1566
-766 -185 1581
-766 -187 1598
-765 -188 1612
-763 -190 1626
-762 -191 1639
-758 -192 1649
-754 -193 1658
-750 -193 1666
-745 -194 1673
-739 -194 1678
-734 -195 1684
0 0 0
0 0 0
0 0 0
0 0 0
0 0 0
0 0 0
0 0 0
0 0 0
0 0 0
0 0 0
0 0 0
0 0 0
0 0 0
0 0 0
0 0 0
0 0 0
0 0 0
0 0 0
0 0 0
0 0 0
0 0 0
0 0 0
0 0 0
-567 -196 1741
0 0 0
0 0 0
0 0 0
-702 -256 2277
-690 -255 2270
-682 -255 2277
-676 -256 2290
-677 -261 2330
-675 -263 2357
-676 -267 2395
-671 -270 2416
-666 -271 2434
-658 -272 2443
-650 -273 2452
-641 -274 2460
-632 -274 2464
-622 -274 2466
-612 -274 2468
-602 -274 2468
-591 -274 2467
-580 -273 2466
-570 -273 2466
-559 -273 2464
-549 -273 2464
-538 -272 2464
-528 -272 2463
-517 -272 2461
-507 -272 2461
-496 -271 2458
-486 -271 2456
-475 -270 2454
-465 -270 2453
-454 -270 2449
-443 -269 2446
-433 -269 2444
-422 -268 2442
-412 -268 2440
-402 -268 2438
-392 -268 2439
-382 -268 2439
-372 -267 2439
-362 -267 2438
-352 -267 2437
-342 -267 2435
-332 -266 2433
-322 -266 2432
-312 -266 2431
-302 -266 2430
-292 -266 2429
-282 -265 2428
-272 -265 2426
-262 -265 2423
-252 -265 2422
-242 -264 2422
-232 -264 2419
-222 -264 2418
-212 -264 2418
-203 -264 2416
-193 -263 2414
-183 -263 2413
-173 -263 2411
-163 -262 2408
-154 -262 2407
-144 -262 2406
-134 -262 2406
-125 -262 2405
-115 -262 2404
-105 -262 2403
-96 -262 2402
-86 -261 2400
-76 -261 2398
-67 -261 2398
-57 -261 2397
-48 -261 2395
-38 -260 2393
-28 -260 2391
-19 -260 2389
-9 -260 2388
0 -260 2387
10 -260 2386
19 -260 2385
29 -259 2383
38 -259 2382
48 -259 2381
57 -259 2381
66 -259 2378
76 -259 2378
85 -259 2375
95 -259 2374
104 -258 2372
114 -258 2370
123 -258 2368
132 -258 2367
142 -258 2365
151 -258 2363
160 -257 2362
170 -257 2361
179 -257 2360
188 -257 2359
198 -257 2358
207 -257 2357
217 -257 2355
226 -257 2353
235 -257 2351
244 -257 2350
254 -257 2348
263 -256 2347
272 -256 2346
282 -256 2345
291 -256 2342
300 -256 2340
309 -256 2337
318 -256 2336
328 -256 2334
337 -256 2334
347 -256 2333
355 -255 2328
364 -255 2321
372 -254 2311
379 -252 2299
386 -251 2285
393 -250 2273
401 -249 2264
408 -248 2253
417 -247 2247
425 -247 2241
433 -247 2238
442 -246 2235
451 -246 2234
461 -247 2236
470 -247 2235
479 -247 2232
487 -246 2227
494 -245 2218
501 -244 2206
507 -243 2194
513 -242 2180
519 -240 2166
524 -239 2150
529 -237 2132
534 -235 2117
539 -234 2101
544 -232 2086
549 -230 2070
553 -229 2055
559 -228 2042
563 -226 2027
568 -225 2014
573 -224 2001
577 -222 1984
582 -221 1973
587 -220 1960
592 -218 1948
597 -217 1937
603 -217 1928
607 -215 1915
611 -214 1903
616 -213 1890
620 -212 1879
625 -211 1867
630 -210 1857
634 -209 1847
639 -208 1836
643 -207 1824
647 -206 1813
651 -204 1801
656 -204 1792
660 -202 1780
664 -201 1770
668 -200 1759
672 -199 1748
676 -198 1738
680 -198 1729
684 -197 1718
688 -196 1709
692 -195 1699
696 -194 1689
700 -193 1680
704 -192 1671
709 -192 1663
713 -191 1654
717 -190 1645
720 -189 1635
723 -188 1625
727 -187 1615
730 -186 1605
734 -186 1596
737 -185 1587
741 -184 1578
744 -183 1568
747 -182 1559
751 -182 1551
754 -181 1541
757 -180 1531
760 -179 1522
763 -178 1514
766 -177 1505
770 -177 1497
773 -176 1489
776 -175 1480
779 -174 1471
781 -174 1461
784 -173 1452
0 0 0
661 -143 1200
664 -143 1195
669 -143 1192
674 -143 1190
680 -143 1189
688 -143 1192
697 -144 1196
704 -145 1198
711 -145 1199
720 -146 1202
0 0 0
739 -147 1212
748 -148 1215
756 -149 1218
0 0 0
764 -148 1208
768 -148 1204
774 -148 1203
782 -148 1204
794 -150 1212
0 0 0
0 0 0
848 -157 1261
858 -157 1264
869 -158 1270
881 -159 1276
907 -163 1303
995 -178 1417
1004 -178 1417
1012 -178 1416
1018 -178 1412
0 0 0
0 0 0
0 0 0
0 0 0
0 0 0
0 0 0
0 0 0
0 0 0
0 0 0
0 0 0
-1813 -312 2581
-1798 -311 2581
-1788 -312 2590
-1781 -312 2602
0 0 0
0 0 0
0 0 0
0 0 0
0 0 0
-1766 -323 2720
-1774 -326 2757
0 0 0
0 0 0
-1827 -343 2916
-1830 -346 2947
-1824 -348 2964
-1807 -347 2964
-1786 -346 2956
-1768 -345 2953
-1749 -344 2949
-1732 -343 2947
-1720 -343 2954
0 0 0
0 0 0
0 0 0
0 0 0
0 0 0
-692 -144 1257
-691 -145 1267
-689 -146 1276
-694 -148 1298
-728 -157 1374
-739 -161 1409
-745 -163 1435
-751 -166 1461
-755 -168 1483
-760 -171 1507
-763 -173 1528
-764 -175 1547
-765 -177 1564
-765 -178 1580
-765 -180 1596
-765 -181 1612
-763 -183 1626
-761 -184 1638
-758 -185 1649
-754 -186 1659
-750 -186 1666
-744 -187 1672
-738 -187 1677
-733 -187 1683
-727 -188 1688
0 0 0
0 0 0
0 0 0
0 0 0
0 0 0
0 0 0
0 0 0
0 0 0
0 0 0
0 0 0
0 0 0
0 0 0
0 0 0
0 0 0
0 0 0
0 0 0
0 0 0
0 0 0
0 0 0
0 0 0
0 0 0
0 0 0
0 0 0
-557 -188 1735
0 0 0
0 0 0
0 0 0
-690 -245 2272
-682 -246 2280
-676 -247 2293
-673 -250 2317
-676 -254 2360
-677 -258 2399
-672 -260 2421
-667 -262 2439
-659 -263 2448
-651 -263 2456
-642 -264 2463
-632 -264 2467
-622 -264 2468
-613 -264 2471
-602 -264 2471
-591 -264 2470
-581 -264 2469
-570 -263 2469
-560 -263 2467
-549 -263 2466
-539 -263 2466
-528 -262 2465
-518 -262 2463
-507 -262 2463
-497 -261 2461
-486 -261 2458
-476 -261 2457
-465 -260 2455
-454 -260 2452
-444 -260 2450
-433 -259 2447
-423 -259 2445
-412 -258 2443
-402 -258 2441
-392 -258 2442
-382 -258 2442
-373 -258 2443
-362 -258 2442
-352 -258 2440
-342 -257 2438
-332 -257 2435
-322 -256 2433
-312 -256 2432
-302 -256 2431
-292 -256 2430
-282 -256 2429
-272 -255 2427
-262 -255 2426
-252 -255 2424
-242 -255 2424
-232 -255 2423
-222 -255 2422
-213 -254 2420
-203 -254 2419
-193 -254 2417
-183 -254 2415
-173 -253 2414
-163 -253 2411
-154 -253 2411
-144 -253 2409
-134 -253 2409
-125 -253 2408
-115 -252 2407
-105 -252 2406
-96 -252 2405
-86 -252 2403
-76 -252 2401
-67 -252 2400
-57 -252 2399
-48 -251 2398
-38 -251 2396
-29 -251 2394
-19 -251 2393
-9 -251 2391
0 -251 2390
10 -250 2389
19 -250 2389
29 -250 2386
38 -250 2385
48 -250 2384
57 -250 2383
66 -250 2380
76 -250 2380
85 -249 2378
95 -249 2376
104 -249 2374
114 -249 2373
123 -249 2371
132 -249 2370
142 -248 2368
151 -248 2367
160 -248 2365
170 -248 2364
179 -248 2363
189 -248 2361
198 -248 2360
207 -248 2359
217 -248 2359
226 -248 2356
235 -248 2355
245 -248 2353
254 -247 2352
263 -247 2350
273 -247 2350
282 -247 2349
291 -247 2347
300 -247 2343
310 -247 2341
319 -247 2339
328 -247 2337
337 -247 2336
347 -247 2335
356 -246 2331
364 -245 2323
372 -245 2314
380 -244 2303
386 -242 2288
393 -241 2273
401 -240 2266
409 -239 2255
417 -238 2249
425 -238 2244
434 -238 2242
443 -238 2239
451 -238 2236
461 -238 2238
470 -238 2238
479 -238 2234
487 -237 2229
495 -237 2221
501 -235 2209
507 -234 2196
514 -233 2184
519 -231 2167
525 -230 2153
530 -228 2136
535 -227 2120
539 -225 2103
544 -224 2087
549 -222 2071
553 -221 2055
559 -219 2043
563 -218 2028
568 -217 2014
574 -216 2003
578 -214 1989
584 -213 1978
588 -212 1964
593 -211 1954
598 -210 1940
603 -209 1929
607 -207 1916
612 -206 1904
617 -205 1894
621 -204 1881
625 -203 1868
630 -202 1858
635 -201 1848
639 -200 1838
644 -199 1827
648 -198 1816
652 -197 1803
656 -196 1792
660 -195 1781
664 -194 1772
668 -193 1760
673 -192 1751
677 -191 1741
680 -190 1730
