ply
format ascii 1.0
comment VCGLIB generated
element vertex 1935
property float x
property float y
property float z
element face 0
property list uchar int vertex_indices
end_header
0 0 0 
0 0 0 
0 0 0 
0 0 0 
0 0 0 
0 0 0 
0 0 0 
0 0 0 
0 0 0 
0 0 0 
0 0 0 
-2185.999 5614.405 150.3518 
-2155.999 5604.036 149.1339 
-2120.999 5579.358 147.3926 
0 0 0 
0 0 0 
0 0 0 
0 0 0 
0 0 0 
0 0 0 
0 0 0 
0 0 0 
0 0 0 
-624.9997 1864.305 45.96466 
-616.9997 1862.162 45.3273 
0 0 0 
-597.9997 1853.762 43.76166 
-587.9997 1848.664 43.6452 
-578.9997 1845.536 43.18124 
-569.9997 1841.423 42.89111 
-560.9997 1839.28 42.2536 
-551.9997 1835.167 41.96326 
-542.9997 1833.197 42.31073 
-534.9997 1833.024 41.32581 
0 0 0 
-518.9997 1831.865 40.51477 
-510.9998 1830.881 40.68823 
-503.9998 1832.85 40.34113 
-495.9998 1831.865 40.51477 
-487.9998 1831.692 39.52997 
0 0 0 
0 0 0 
0 0 0 
0 0 0 
0 0 0 
0 0 0 
0 0 0 
0 0 0 
0 0 0 
0 0 0 
0 0 0 
0 0 0 
0 0 0 
0 0 0 
0 0 0 
-364.9998 1824.915 35.64764 
-356.9998 1824.915 35.64764 
-349.9998 1825.899 35.474 
-341.9998 1825.899 35.474 
-334.9998 1825.899 35.474 
-327.9998 1825.899 35.474 
-319.9998 1825.899 35.474 
-312.9998 1825.726 34.48929 
-304.9998 1826.711 34.31564 
-297.9998 1826.711 34.31564 
-290.9998 1826.711 34.31564 
-282.9998 1827.695 34.14203 
-275.9998 1828.68 33.9682 
-268.9998 1828.68 33.9682 
-261.9998 1829.665 33.79471 
-253.9999 1829.665 33.79471 
-246.9999 1828.68 33.9682 
-238.9999 1827.522 33.15726 
-231.9999 1826.537 33.33087 
-223.9999 1825.552 33.50439 
-216.9999 1824.394 32.69324 
-208.9999 1823.409 32.86694 
-201.9999 1823.409 32.86694 
-194.9999 1821.266 32.22937 
-186.9999 1820.281 32.40298 
-179.9999 1819.296 32.5766 
-172.9999 1818.311 32.75049 
-164.9999 1815.183 32.28644 
-157.9999 1813.04 31.64899 
-149.9999 1810.085 32.17004 
-142.9999 1806.958 31.70596 
-134.9999 1804.988 32.05344 
-128 1801.86 31.58951 
-121 1798.732 31.12561 
-114 1796.762 31.47296 
-106 1793.634 31.00891 
-98.99996 1790.68 31.53 
-91.99996 1787.551 31.06622 
-83.99996 1783.439 30.77597 
-76.99996 1780.484 31.29694 
-69.99996 1776.371 31.00674 
-62.99998 1772.258 30.71649 
-55.99998 1768.146 30.42621 
-48.99998 1764.033 30.13605 
-41.99998 1757.95 30.19318 
-34.99998 1753.837 29.90289 
-27.99999 1748.74 29.78635 
-20.99999 1743.642 29.66977 
-14 1737.559 29.72696 
-6.999998 1731.477 29.784 
0 1725.394 29.84119 
6.999998 1719.312 29.89819 
14 1713.23 29.95514 
19.99999 1706.973 29.02756 
26.99999 1700.891 29.08463 
32.99998 1693.824 29.31537 
39.99998 1687.741 29.37241 
45.99998 1680.5 28.61835 
52.99998 1671.463 29.19635 
58.99998 1664.222 28.44226 
64.99996 1656.17 28.84669 
71.99996 1647.944 28.2663 
77.99996 1640.877 28.49689 
83.99996 1632.651 27.91653 
89.99996 1622.63 28.66826 
95.99996 1613.419 28.26152 
101 1601.254 28.3757 
107 1591.059 28.14243 
112 1578.72 27.27191 
118 1568.698 28.02348 
123 1556.36 27.153 
128 1543.21 27.44077 
132.9999 1529.887 26.74391 
137.9999 1513.609 26.56779 
141.9999 1492.233 26.27513 
144.9999 1466.745 25.69235 
147.9999 1440.272 25.28325 
151.9999 1420.054 25.80173 
155.9999 1402.618 24.81448 
158.9999 1386.34 24.63855 
162.9999 1371.221 25.27356 
166.9999 1355.928 24.92409 
169.9999 1342.604 24.22714 
173.9999 1330.439 24.34126 
177.9999 1318.274 24.45541 
181.9999 1308.079 24.22232 
185.9999 1297.883 23.98918 
188.9999 1287.688 23.75609 
192.9999 1276.508 23.69664 
195.9999 1266.312 23.46352 
199.9999 1258.26 23.8678 
203.9999 1248.065 23.63467 
206.9999 1240.013 24.03909 
210.9999 1230.802 23.63228 
213.9999 1222.577 23.05186 
217.9999 1216.494 23.10892 
221.9999 1207.457 23.6869 
224.9999 1200.216 22.93283 
228.9999 1195.292 23.8011 
233.9999 1193.149 23.16359 
236.9999 1187.066 23.2207 
241.9999 1184.112 23.74168 
244.9999 1177.044 23.9724 
248.9999 1171.947 23.8558 
251.9999 1164.706 23.1017 
255.9999 1158.623 23.15884 
260.9998 1160.767 23.79634 
262.9998 1151.556 23.38959 
267.9998 1151.556 23.38959 
270.9998 1143.504 23.79395 
275.9998 1144.489 23.62033 
0 0 0 
0 0 0 
0 0 0 
0 0 0 
0 0 0 
300.9998 1129.369 24.25543 
0 0 0 
0 0 0 
0 0 0 
0 0 0 
0 0 0 
0 0 0 
0 0 0 
0 0 0 
0 0 0 
0 0 0 
0 0 0 
0 0 0 
0 0 0 
0 0 0 
0 0 0 
0 0 0 
0 0 0 
0 0 0 
0 0 0 
0 0 0 
0 0 0 
0 0 0 
0 0 0 
0 0 0 
0 0 0 
0 0 0 
0 0 0 
0 0 0 
0 0 0 
0 0 0 
0 0 0 
0 0 0 
0 0 0 
0 0 0 
0 0 0 
0 0 0 
0 0 0 
530.9997 1218.751 35.91145 
534.9997 1215.623 35.44762 
536.9997 1205.602 36.19925 
541.9997 1204.617 36.37294 
544.9997 1198.534 36.42999 
544.9997 1186.369 36.54414 
546.9997 1178.144 35.96375 
550.9997 1175.189 36.48468 
556.9997 1174.204 36.65833 
563.9997 1177.333 37.12219 
567.9997 1173.393 37.81676 
574.9997 1176.521 38.28062 
578.9997 1172.408 37.99037 
584.9997 1173.567 38.80161 
589.9997 1171.597 39.14888 
593.9997 1167.484 38.8587 
598.9997 1166.5 39.03239 
604.9997 1165.515 39.20599 
608.9997 1162.56 39.72697 
612.9997 1158.621 40.42157 
617.9997 1157.636 40.5952 
624.9997 1158.621 40.42157 
630.9997 1158.795 41.40637 
638.9997 1162.908 41.69659 
645.9997 1165.051 42.33409 
653.9997 1168.179 42.79796 
661.9997 1171.307 43.26181 
669.9997 1174.435 43.72562 
677.9997 1177.563 44.18947 
686.9997 1182.835 45.29085 
694.9997 1185.963 45.75481 
703.9997 1190.076 46.04498 
712.9997 1193.204 46.50882 
720.9997 1196.332 46.9727 
728.9997 1198.475 47.61015 
734.9997 1198.649 48.595 
742.9997 1199.633 48.42131 
752.9997 1204.905 49.52272 
764.9997 1213.13 50.1031 
776.9997 1221.356 50.68355 
784.9997 1223.5 51.32108 
792.9997 1225.643 51.95862 
800.9997 1226.801 52.76985 
810.9997 1230.914 53.06006 
819.9997 1234.216 54.50862 
829.9997 1238.329 54.79884 
839.9997 1242.615 56.07388 
849.9997 1246.728 56.36411 
859.9997 1250.841 56.65436 
869.9997 1254.143 58.10304 
879.9997 1258.256 58.39317 
888.9997 1259.414 59.20436 
896.9997 1260.573 60.01549 
0 0 0 
0 0 0 
0 0 0 
-1886.999 2560.884 115.0546 
-1869.999 2559.552 113.2586 
-1861.999 2569.574 112.5071 
-1868.999 2602.13 112.8592 
-1869.999 2625.475 112.8044 
-1866.999 2643.722 112.6331 
-1856.999 2651.601 111.2439 
-1843.999 2656.525 110.3757 
-1829.999 2659.479 109.8547 
-1820.999 2668.343 108.2919 
-1811.999 2679.523 108.3516 
-1806.999 2694.642 107.7164 
-1802.999 2712.716 106.5603 
-1799.999 2731.948 106.2153 
-1794.999 2747.068 105.5801 
-1790.999 2766.301 105.235 
-1786.999 2783.563 105.2374 
-1780.999 2799.667 104.4285 
-1773.999 2812.817 104.1409 
-1768.999 2829.906 103.1585 
-1761.999 2845.199 103.5081 
0 0 0 
0 0 0 
-739.9997 1227.034 42.57439 
-736.9997 1233.117 42.51729 
-733.9997 1240.184 42.28653 
-736.9997 1255.477 42.63625 
-789.9997 1358.589 45.7787 
-808.9997 1405.454 46.65398 
-816.9997 1430.942 47.23677 
-817.9997 1447.22 47.41287 
-819.9997 1463.498 47.58888 
-819.9997 1477.632 47.1275 
-819.9997 1491.767 46.66588 
-820.9997 1508.045 46.84207 
-820.9997 1523.338 47.19173 
-820.9997 1537.472 46.73021 
-819.9997 1550.796 47.4269 
-818.9997 1563.946 47.13919 
-818.9997 1578.08 46.67783 
-817.9997 1592.388 47.2012 
-816.9997 1605.538 46.91336 
-814.9997 1618.688 46.62544 
-811.9997 1628.883 46.85867 
-808.9997 1637.92 46.28059 
-803.9997 1644.003 46.22343 
0 0 0 
0 0 0 
0 0 0 
0 0 0 
0 0 0 
0 0 0 
0 0 0 
0 0 0 
-2729.999 6131.357 156.6799 
0 0 0 
0 0 0 
0 0 0 
0 0 0 
0 0 0 
0 0 0 
0 0 0 
0 0 0 
0 0 0 
0 0 0 
0 0 0 
0 0 0 
0 0 0 
0 0 0 
0 0 0 
0 0 0 
0 0 0 
0 0 0 
0 0 0 
-656.9997 1861.12 39.41846 
-646.9997 1855.848 38.31708 
-637.9997 1853.878 38.66409 
-629.9997 1853.705 37.67929 
-619.9997 1848.607 37.56271 
-611.9997 1848.607 37.56271 
-602.9997 1844.32 36.28766 
-593.9997 1843.336 36.46118 
-585.9997 1842.177 35.64999 
-576.9997 1840.208 35.99738 
-568.9997 1838.065 35.3598 
-560.9997 1838.065 35.3598 
-551.9997 1834.936 34.89609 
-543.9997 1833.778 34.08484 
-535.9997 1833.778 34.08484 
-527.9997 1832.793 34.25845 
-518.9997 1831.635 33.44742 
-511.9998 1831.635 33.44742 
-503.9998 1831.635 33.44742 
-495.9998 1830.476 32.63626 
-487.9998 1830.476 32.63626 
-479.9998 1830.476 32.63626 
-471.9998 1830.302 31.65143 
-463.9998 1829.318 31.82504 
-455.9998 1828.159 31.01382 
-448.9998 1827.174 31.18759 
-440.9998 1827.174 31.18759 
-432.9998 1826.016 30.37643 
-424.9998 1826.016 30.37643 
-417.9998 1825.031 30.55008 
-409.9998 1824.857 29.56516 
-401.9998 1824.857 29.56516 
-394.9998 1823.873 29.7388 
-386.9998 1823.873 29.7388 
-379.9998 1824.857 29.56516 
-371.9998 1824.684 28.58041 
-364.9998 1824.684 28.58041 
-356.9998 1825.669 28.40683 
-349.9998 1826.654 28.23322 
-342.9998 1826.654 28.23322 
-334.9998 1826.654 28.23322 
-327.9998 1826.654 28.23322 
-319.9998 1826.654 28.23322 
-312.9998 1826.48 27.24835 
-304.9998 1826.48 27.24835 
-297.9998 1827.465 27.07458 
-290.9998 1827.465 27.07458 
-283.9998 1828.45 26.90091 
-275.9998 1829.434 26.72726 
-268.9998 1829.434 26.72726 
-261.9998 1829.434 26.72726 
-253.9999 1830.419 26.55377 
-246.9999 1829.434 26.72726 
-238.9999 1828.276 25.91629 
-231.9999 1828.276 25.91629 
-223.9999 1826.306 26.26358 
-216.9999 1826.306 26.26358 
-209.9999 1825.148 25.4523 
-201.9999 1825.148 25.4523 
-194.9999 1824.163 25.62595 
-187.9999 1823.178 25.79953 
-179.9999 1822.02 24.98853 
-172.9999 1821.035 25.16223 
-165.9999 1820.05 25.33578 
-157.9999 1816.922 24.87189 
-150.9999 1814.953 25.21918 
-142.9999 1811.824 24.75543 
-135.9999 1809.855 25.10254 
-128 1805.742 24.81232 
-121 1804.583 24.00134 
-114 1803.599 24.17496 
-107 1799.486 23.8848 
-98.99996 1796.531 24.40582 
-91.99996 1793.403 23.9418 
-84.99996 1790.275 23.47787 
-76.99996 1785.351 24.34613 
-69.99996 1781.238 24.05597 
-62.99998 1776.141 23.93939 
-55.99998 1773.013 23.47552 
-48.99998 1767.915 23.35889 
-41.99998 1762.817 23.24237 
-34.99998 1758.704 22.95218 
-27.99999 1753.607 22.83572 
-20.99999 1746.54 23.06635 
-14 1741.442 22.94974 
-6.999998 1736.344 22.83334 
0 1730.261 22.89023 
6.999998 1724.179 22.94751 
14 1719.081 22.83087 
19.99999 1712.999 22.88791 
26.99999 1706.916 22.94504 
33.99998 1701.819 22.82855 
39.99998 1694.578 22.07431 
46.99998 1687.511 22.30521 
52.99998 1681.428 22.36234 
59.99998 1674.361 22.59293 
65.99996 1666.135 22.01251 
71.99996 1660.052 22.0697 
77.99996 1650.842 21.6629 
84.99996 1644.759 21.71994 
89.99996 1634.564 21.48685 
95.99996 1625.527 22.06485 
102 1615.332 21.83167 
108 1605.136 21.59857 
113 1591.002 22.05991 
119 1581.791 21.65321 
124 1566.498 21.30374 
128.9999 1552.19 20.78033 
133.9999 1535.912 20.60428 
137.9999 1516.68 20.94913 
141.9999 1494.319 20.83025 
145.9999 1469.816 20.07376 
147.9999 1441.373 20.01192 
151.9999 1420.982 19.54559 
155.9999 1401.75 19.89044 
158.9999 1385.472 19.71448 
162.9999 1370.179 19.36475 
166.9999 1355.871 18.84143 
169.9999 1341.736 19.30312 
173.9999 1329.571 19.41725 
177.9999 1317.232 18.54662 
181.9999 1307.211 19.29832 
184.9999 1296.03 19.23875 
188.9999 1283.692 18.36824 
191.9999 1273.67 19.11987 
195.9999 1262.49 19.06032 
199.9999 1254.264 18.47995 
202.9999 1245.227 19.05795 
206.9999 1236.016 18.65117 
209.9999 1227.791 18.07076 
213.9999 1218.754 18.64877 
216.9999 1210.528 18.06831 
220.9999 1202.476 18.4727 
223.9999 1195.409 18.70345 
227.9999 1188.341 18.93414 
231.9999 1182.259 18.9913 
234.9999 1176.003 18.06355 
238.9999 1169.92 18.12065 
241.9999 1162.853 18.35141 
244.9999 1154.801 18.7558 
247.9999 1147.734 18.98642 
251.9999 1141.651 19.04353 
254.9999 1135.568 19.10069 
257.9998 1129.486 19.15778 
261.9998 1123.23 18.23006 
264.9998 1117.147 18.28711 
267.9998 1110.08 18.51779 
270.9998 1104.982 18.40128 
273.9998 1098.9 18.45833 
277.9998 1094.961 19.15292 
280.9998 1089.863 19.03641 
284.9998 1085.75 18.74619 
288.9998 1082.796 19.26709 
291.9998 1079.667 18.80325 
295.9998 1077.698 19.1505 
300.9998 1076.713 19.32413 
302.9998 1069.646 19.55496 
307.9998 1068.661 19.72859 
0 0 0 
0 0 0 
0 0 0 
0 0 0 
0 0 0 
0 0 0 
0 0 0 
0 0 0 
0 0 0 
0 0 0 
0 0 0 
0 0 0 
0 0 0 
0 0 0 
0 0 0 
0 0 0 
0 0 0 
0 0 0 
0 0 0 
0 0 0 
0 0 0 
0 0 0 
0 0 0 
0 0 0 
0 0 0 
0 0 0 
0 0 0 
0 0 0 
470.9998 1128.906 27.38347 
474.9998 1126.936 27.7308 
479.9998 1125.951 27.90445 
483.9998 1121.838 27.61423 
489.9998 1123.981 28.25174 
493.9998 1120.854 27.78784 
499.9998 1122.012 28.59906 
504.9998 1122.997 28.4254 
511.9998 1125.14 29.06288 
516.9997 1125.14 29.06288 
522.9997 1126.298 29.87402 
528.9997 1128.442 30.5116 
534.9997 1129.427 30.33791 
541.9997 1132.555 30.80179 
548.9997 1134.698 31.43938 
554.9997 1135.683 31.26569 
561.9997 1137.826 31.90312 
567.9997 1139.969 32.54063 
575.9997 1143.097 33.00453 
582.9997 1145.241 33.64206 
589.9997 1148.369 34.10587 
596.9997 1150.338 33.75856 
602.9997 1151.497 34.56976 
609.9997 1153.64 35.20726 
616.9997 1154.625 35.03362 
623.9997 1156.768 35.67114 
629.9997 1157.926 36.48232 
637.9997 1161.054 36.94615 
644.9997 1163.024 36.59885 
652.9997 1166.152 37.06268 
660.9997 1169.454 38.5114 
668.9997 1172.582 38.97522 
676.9997 1176.695 39.26541 
685.9997 1180.808 39.55565 
693.9997 1183.936 40.01955 
702.9997 1187.064 40.48338 
710.9997 1190.192 40.94727 
718.9997 1193.32 41.41106 
726.9997 1195.463 42.04863 
733.9997 1196.622 42.85976 
741.9997 1198.765 43.4973 
749.9997 1200.908 44.13477 
761.9997 1209.134 44.71521 
774.9997 1218.344 45.12196 
783.9997 1221.473 45.58598 
790.9997 1222.631 46.39705 
799.9997 1225.759 46.86095 
809.9997 1229.061 48.30956 
818.9997 1233.174 48.59976 
828.9997 1237.287 48.88997 
838.9997 1241.573 50.16502 
848.9997 1244.701 50.62888 
858.9997 1248.814 50.91905 
868.9997 1252.116 52.3678 
878.9997 1256.229 52.65805 
887.9997 1258.372 53.29555 
896.9997 1260.515 53.93301 
0 0 0 
0 0 0 
-1912.999 2573.283 104.7451 
-1890.999 2565.868 103.0062 
-1871.999 2561.581 101.7312 
-1860.999 2568.649 101.5004 
-1860.999 2589.851 100.8083 
-1866.999 2620.263 100.5229 
-1865.999 2641.465 99.83078 
-1854.999 2649.517 99.42624 
-1843.999 2655.426 98.38434 
-1829.999 2658.207 96.87872 
-1818.999 2665.274 96.64783 
-1810.999 2676.281 95.72266 
-1805.999 2692.385 94.91391 
-1801.999 2709.647 94.91632 
-1797.999 2727.721 93.76022 
-1794.999 2747.938 93.24155 
-1791.999 2767.171 92.89627 
-1786.999 2783.449 93.07245 
-1780.999 2799.553 92.2637 
-1775.999 2815.657 91.45493 
-1772.999 2836.859 90.76279 
-1767.999 2854.122 90.7652 
0 0 0 
0 0 0 
0 0 0 
-735.9997 1231.264 37.76692 
-733.9997 1239.316 37.3625 
-732.9997 1249.338 36.61084 
-760.9997 1308.54 38.35696 
-794.9997 1379.908 39.98859 
-805.9997 1412.464 40.34073 
-809.9997 1432.855 40.80696 
-811.9997 1450.117 40.8094 
-813.9997 1467.38 40.81175 
-813.9997 1481.515 40.35028 
-815.9997 1497.792 40.52647 
-815.9997 1512.912 39.89134 
-816.9997 1529.19 40.06734 
-815.9997 1542.34 39.7795 
-815.9997 1557.632 40.12907 
-814.9997 1570.782 39.84119 
-813.9997 1583.932 39.55339 
-812.9997 1598.067 39.09196 
-811.9997 1612.375 39.61539 
-809.9997 1624.54 39.50116 
-806.9997 1634.562 38.74944 
-802.9997 1641.629 38.51875 
-797.9997 1647.712 38.46169 
-787.9997 1645.568 37.82416 
-775.9997 1635.373 37.59096 
0 0 0 
0 0 0 
0 0 0 
0 0 0 
0 0 0 
-2728.999 6126.668 130.0901 
-2705.999 6140.63 128.6434 
0 0 0 
0 0 0 
0 0 0 
0 0 0 
0 0 0 
-775.9997 1881.974 36.75665 
0 0 0 
-755.9997 1874.733 36.00269 
-746.9997 1873.575 35.19144 
-738.9997 1876.529 34.67044 
-730.9997 1877.514 34.49683 
-722.9997 1877.514 34.49683 
-713.9997 1877.34 33.51199 
-703.9997 1872.243 33.39548 
-693.9997 1869.115 32.93176 
0 0 0 
0 0 0 
-664.9997 1857.761 31.88727 
-654.9997 1853.648 31.59708 
-645.9997 1852.49 30.78592 
-636.9997 1849.362 30.32199 
-628.9997 1848.377 30.49585 
-619.9997 1846.233 29.85779 
-610.9997 1844.09 29.22043 
-601.9997 1843.105 29.39404 
-593.9997 1841.947 28.58273 
-585.9997 1840.962 28.75641 
-576.9997 1839.804 27.94525 
-568.9997 1838.819 28.11902 
-560.9997 1837.66 27.30777 
-551.9997 1835.691 27.65503 
-543.9997 1834.532 26.84402 
-535.9997 1834.532 26.84402 
-527.9997 1832.389 26.20633 
-518.9997 1831.404 26.38 
-510.9998 1830.246 25.569 
-502.9998 1830.246 25.569 
-494.9998 1829.087 24.75772 
-486.9998 1828.102 24.93137 
-479.9998 1828.102 24.93137 
-471.9998 1828.102 24.93137 
-463.9998 1826.944 24.12012 
-455.9998 1826.944 24.12012 
-448.9998 1826.944 24.12012 
-440.9998 1826.77 23.13538 
-432.9998 1825.785 23.30917 
-424.9998 1825.785 23.30917 
-417.9998 1825.785 23.30917 
-409.9998 1824.627 22.49792 
-401.9998 1824.627 22.49792 
-394.9998 1823.642 22.67157 
-386.9998 1822.484 21.86032 
-379.9998 1823.468 21.68671 
-371.9998 1823.468 21.68671 
-364.9998 1823.468 21.68671 
-356.9998 1823.468 21.68671 
-349.9998 1823.295 20.702 
-341.9998 1823.295 20.702 
-334.9998 1823.295 20.702 
-326.9998 1824.279 20.52838 
-319.9998 1825.264 20.35471 
-312.9998 1825.264 20.35471 
-304.9998 1826.249 20.18088 
-297.9998 1828.219 19.83383 
-290.9998 1828.219 19.83383 
-283.9998 1829.203 19.66016 
-276.9998 1830.189 19.48633 
-268.9998 1831.173 19.31268 
-261.9998 1832.158 19.13919 
-254.9999 1833.143 18.96555 
-247.9999 1834.128 18.79172 
-239.9999 1833.143 18.96555 
-232.9999 1833.143 18.96555 
-224.9999 1832.158 19.13919 
-217.9999 1831.984 18.15436 
-210.9999 1831.984 18.15436 
-202.9999 1831 18.32797 
-195.9999 1830.015 18.50165 
-187.9999 1831 18.32797 
-180.9999 1830.015 18.50165 
-173.9999 1828.856 17.69055 
-165.9999 1826.887 18.03769 
-158.9999 1825.902 18.2113 
-150.9999 1821.789 17.92108 
-143.9999 1818.661 17.4574 
-135.9999 1815.533 16.99356 
-128.9999 1815.533 16.99356 
-122 1812.579 17.5144 
-114 1809.45 17.05057 
-107 1807.481 17.39792 
-99.99996 1805.337 16.76031 
-91.99996 1799.255 16.81744 
-84.99996 1797.285 17.16473 
-77.99996 1792.188 17.04813 
-69.99996 1786.105 17.10529 
-62.99998 1781.993 16.81506 
-55.99998 1777.879 16.52481 
-48.99998 1771.797 16.58188 
-41.99998 1768.669 16.11801 
-34.99998 1764.73 16.81268 
-27.99999 1758.474 15.88483 
-20.99999 1751.406 16.11572 
-14 1744.339 16.34637 
-6.999998 1736.113 15.76581 
0 1733.159 16.28677 
6.999998 1725.918 15.53293 
14 1721.978 16.22751 
19.99999 1717.866 15.93726 
26.99999 1711.783 15.9942 
33.99998 1707.671 15.7041 
39.99998 1697.475 15.47101 
46.99998 1693.536 16.16547 
52.99998 1685.31 15.58502 
59.99998 1675.115 15.35199 
65.99996 1670.017 15.23541 
71.99996 1665.093 16.10358 
78.99996 1656.867 15.52325 
84.99996 1648.815 15.92767 
90.99996 1642.733 15.98462 
96.99996 1636.477 15.05704 
103 1627.44 15.63498 
109 1617.244 15.40179 
115 1610.177 15.63263 
121 1604.094 15.68967 
126 1593.899 15.45651 
131.9999 1589.786 15.16632 
136.9999 1578.606 15.10692 
141.9999 1563.487 15.74223 
145.9999 1537.014 15.33286 
148.9999 1507.412 14.45984 
149.9999 1455.624 14.45273 
152.9999 1428.166 14.21713 
155.9999 1407.775 13.75092 
159.9999 1387.558 14.2695 
162.9999 1371.28 14.09346 
166.9999 1355.987 13.7437 
169.9999 1341.853 14.20538 
173.9999 1330.672 14.14586 
177.9999 1319.492 14.08649 
181.9999 1308.312 14.02699 
184.9999 1295.973 13.15636 
188.9999 1284.967 14.08163 
192.9999 1273.786 14.02211 
195.9999 1262.606 13.96274 
198.9999 1252.411 13.72952 
202.9999 1243.2 13.32283 
206.9999 1235.148 13.72714 
209.9999 1225.938 13.32037 
213.9999 1216.901 13.89844 
216.9999 1208.675 13.31798 
219.9999 1200.623 13.72237 
223.9999 1192.571 14.12672 
226.9999 1185.33 13.37268 
230.9999 1179.247 13.42978 
233.9999 1172.18 13.66043 
237.9999 1165.113 13.89117 
240.9999 1158.046 14.12196 
243.9999 1150.805 13.36784 
247.9999 1143.737 13.59859 
250.9999 1136.67 13.82928 
253.9999 1129.602 14.06006 
256.9998 1124.505 13.94347 
259.9998 1117.438 14.17422 
263.9998 1111.355 14.23131 
266.9998 1105.273 14.28836 
269.9998 1099.19 14.34546 
272.9998 1093.108 14.4025 
275.9998 1087.025 14.45964 
278.9998 1081.927 14.34306 
282.9998 1076.83 14.22653 
285.9998 1071.906 15.09473 
288.9998 1066.808 14.97801 
291.9998 1061.71 14.86147 
294.9998 1056.613 14.74493 
297.9998 1051.515 14.6283 
300.9998 1046.591 15.49661 
303.9998 1041.493 15.38005 
307.9998 1037.38 15.08983 
0 0 0 
0 0 0 
0 0 0 
0 0 0 
331.9998 1043.637 16.01758 
0 0 0 
0 0 0 
0 0 0 
0 0 0 
0 0 0 
0 0 0 
370.9998 1064.201 17.46855 
375.9998 1064.375 18.45355 
381.9998 1066.344 18.10626 
386.9998 1068.487 18.74374 
391.9998 1069.472 18.57013 
397.9998 1071.616 19.20769 
402.9998 1072.6 19.034 
408.9998 1075.729 19.4978 
414.9998 1077.871 20.13535 
420.9998 1079.841 19.78807 
425.9998 1081.984 20.42557 
431.9998 1083.954 20.07828 
437.9998 1086.097 20.71581 
443.9998 1088.241 21.3533 
449.9998 1091.369 21.81714 
455.9998 1093.338 21.46983 
461.9998 1096.467 21.93372 
468.9998 1099.594 22.39755 
474.9998 1102.723 22.86142 
480.9998 1103.708 22.68774 
487.9998 1106.835 23.15169 
493.9998 1109.964 23.61554 
500.9998 1112.107 24.25304 
506.9998 1115.061 23.73213 
513.9997 1117.205 24.36961 
519.9997 1119.348 25.00714 
525.9997 1121.491 25.64464 
532.9997 1123.461 25.29724 
538.9997 1125.604 25.93478 
545.9997 1127.747 26.57231 
552.9997 1130.875 27.03621 
558.9997 1132.845 26.68893 
566.9997 1135.973 27.15277 
572.9997 1138.116 27.79022 
580.9997 1141.244 28.25415 
586.9997 1143.387 28.89162 
594.9997 1146.516 29.35547 
601.9997 1148.485 29.00818 
608.9997 1150.628 29.64566 
615.9997 1152.771 30.28316 
622.9997 1154.915 30.92072 
629.9997 1156.885 30.57341 
637.9997 1160.013 31.03729 
644.9997 1163.141 31.50113 
652.9997 1166.269 31.965 
659.9997 1168.412 32.60254 
668.9997 1172.699 33.87752 
676.9997 1175.827 34.34138 
684.9997 1178.955 34.80531 
692.9997 1182.083 35.26917 
701.9997 1186.196 35.55937 
709.9997 1189.324 36.02322 
718.9997 1192.452 36.48708 
726.9997 1195.58 36.95096 
733.9997 1196.738 37.76208 
741.9997 1197.723 37.58849 
749.9997 1200.851 38.05232 
761.9997 1208.092 38.8063 
773.9997 1216.492 40.37164 
782.9997 1219.62 40.83546 
790.9997 1221.763 41.47299 
799.9997 1224.891 41.9369 
809.9997 1229.004 42.2271 
819.9997 1233.117 42.51729 
829.9997 1237.403 43.79233 
839.9997 1241.516 44.08252 
848.9997 1244.644 44.54646 
858.9997 1248.931 45.82147 
869.9997 1253.044 46.11166 
879.9997 1257.33 47.38669 
887.9997 1258.315 47.21298 
897.9997 1261.617 48.66171 
0 0 0 
-1947.999 2599.004 95.13254 
-1918.999 2581.394 93.16071 
-1892.999 2567.897 91.47879 
-1873.999 2563.611 90.20377 
-1861.999 2568.535 89.33554 
-1857.999 2585.624 88.35321 
-1863.999 2616.036 88.06778 
-1864.999 2640.366 87.83945 
-1855.999 2649.403 87.26135 
-1843.999 2655.312 86.21942 
-1830.999 2659.251 85.52484 
-1819.999 2666.145 84.30933 
-1808.999 2674.197 83.905 
-1804.999 2690.301 83.09619 
-1799.999 2707.39 82.11377 
-1796.999 2726.622 81.76883 
-1793.999 2744.87 81.59729 
-1790.999 2765.088 81.07861 
-1784.999 2780.207 80.44366 
-1779.999 2797.296 79.46124 
-1773.999 2812.415 78.82617 
-1770.999 2832.633 78.3074 
-1766.999 2851.865 77.96271 
-1761.999 2870.113 77.79138 
0 0 0 
0 0 0 
-735.9997 1231.206 31.68446 
-732.9997 1237.289 31.62738 
-732.9997 1248.469 31.68686 
-737.9997 1268.687 31.16826 
-773.9997 1343.182 33.26407 
-793.9997 1391.031 33.9657 
-799.9997 1415.361 33.73729 
-803.9997 1434.593 33.39236 
-806.9997 1454 34.03233 
-808.9997 1471.262 34.03474 
-809.9997 1487.366 33.22597 
-810.9997 1502.659 33.57567 
-811.9997 1519.922 33.578 
-811.9997 1534.057 33.11656 
-811.9997 1549.35 33.46623 
-810.9997 1563.484 33.00467 
-810.9997 1577.619 32.5433 
-809.9997 1591.753 32.0817 
-808.9997 1606.062 32.60519 
-807.9997 1619.211 32.31734 
-804.9997 1630.392 32.3768 
-800.9997 1638.444 31.9724 
-796.9997 1645.511 31.74152 
-790.9997 1650.435 30.87332 
-784.9997 1654.548 31.16357 
0 0 0 
0 0 0 
0 0 0 
0 0 0 
-2742.999 6092.9 105.5814 
-2721.999 6110.974 104.4252 
-2699.999 6126.904 102.632 
0 0 0 
0 0 0 
0 0 0 
0 0 0 
0 0 0 
-773.9997 1875.488 28.76163 
-764.9997 1874.503 28.9353 
-754.9997 1873.344 28.12427 
-745.9997 1871.201 27.4866 
-736.9997 1870.216 27.66022 
-727.9997 1869.057 26.84921 
-718.9997 1867.899 26.03793 
-709.9997 1866.914 26.21161 
-700.9997 1864.771 25.57404 
-691.9997 1863.613 24.76294 
-681.9997 1859.5 24.47287 
-672.9997 1857.53 24.81998 
-663.9997 1855.387 24.18253 
-654.9997 1853.244 23.54495 
-645.9997 1851.1 22.90744 
-636.9997 1850.116 23.08115 
-628.9997 1847.972 22.4436 
-619.9997 1845.829 21.80615 
-610.9997 1843.86 22.15329 
-601.9997 1841.716 21.5159 
-593.9997 1841.716 21.5159 
-585.9997 1840.558 20.70471 
-576.9997 1838.588 21.05157 
-568.9997 1838.414 20.06674 
-560.9997 1837.429 20.24057 
-551.9997 1835.286 19.60287 
-543.9997 1834.302 19.77655 
-535.9997 1833.143 18.96555 
-527.9997 1832.158 19.13919 
-518.9997 1831 18.32797 
-510.9998 1830.015 18.50165 
-502.9998 1828.856 17.69055 
-494.9998 1826.887 18.03769 
-486.9998 1826.713 17.05289 
-478.9998 1825.729 17.22647 
-470.9998 1825.729 17.22647 
-462.9998 1824.57 16.41547 
-455.9998 1824.57 16.41547 
-447.9998 1824.57 16.41547 
-439.9998 1823.411 15.60434 
-432.9998 1823.411 15.60434 
-424.9998 1823.411 15.60434 
-416.9998 1822.427 15.77798 
-409.9998 1822.253 14.79303 
-401.9998 1822.253 14.79303 
-393.9998 1821.268 14.96671 
-386.9998 1821.268 14.96671 
-378.9998 1821.095 13.98184 
-371.9998 1821.095 13.98184 
-363.9998 1822.079 13.80823 
-356.9998 1823.064 13.63458 
-349.9998 1823.064 13.63458 
-341.9998 1824.049 13.46097 
-334.9998 1825.034 13.28726 
-327.9998 1827.003 12.94 
-319.9998 1826.019 13.11368 
-312.9998 1827.988 12.76639 
-305.9998 1828.973 12.59268 
-298.9998 1832.101 13.05667 
-291.9998 1831.927 12.07178 
-284.9998 1835.056 12.53604 
-276.9998 1835.056 12.53604 
0 0 0 
-262.9998 1838.995 11.84146 
0 0 0 
-248.9999 1843.108 12.13165 
-240.9999 1841.949 11.3205 
-233.9999 1839.98 11.66785 
0 0 0 
-218.9999 1839.98 11.66785 
0 0 0 
-203.9999 1842.934 11.14688 
0 0 0 
0 0 0 
-181.9999 1842.934 11.14688 
0 0 0 
0 0 0 
0 0 0 
0 0 0 
0 0 0 
0 0 0 
0 0 0 
0 0 0 
0 0 0 
0 0 0 
0 0 0 
-92.99996 1819.415 10.21652 
0 0 0 
0 0 0 
0 0 0 
0 0 0 
0 0 0 
0 0 0 
0 0 0 
0 0 0 
0 0 0 
0 0 0 
0 0 0 
0 0 0 
0 0 0 
0 0 0 
0 0 0 
0 0 0 
0 0 0 
0 0 0 
0 0 0 
0 0 0 
0 0 0 
0 0 0 
0 0 0 
0 0 0 
0 0 0 
0 0 0 
0 0 0 
0 0 0 
0 0 0 
0 0 0 
0 0 0 
0 0 0 
0 0 0 
0 0 0 
0 0 0 
0 0 0 
0 0 0 
0 0 0 
160.9999 1564.414 9.486023 
165.9999 1553.234 9.426453 
163.9999 1479.086 9.3004 
162.9999 1418.087 8.886444 
164.9999 1384.547 8.708008 
167.9999 1363.171 8.415375 
170.9999 1345.909 8.412979 
174.9999 1335.713 8.179993 
177.9999 1321.578 8.641418 
181.9999 1309.413 8.755569 
185.9999 1297.248 8.869827 
188.9999 1284.91 7.999207 
192.9999 1273.903 8.924454 
195.9999 1262.723 8.864944 
198.9999 1252.527 8.631851 
202.9999 1243.317 8.225067 
206.9999 1234.28 8.803085 
209.9999 1225.07 8.396378 
212.9999 1216.033 8.97435 
216.9999 1206.822 8.567505 
219.9999 1198.77 8.971954 
223.9999 1191.703 9.202667 
226.9999 1184.462 8.448639 
230.9999 1177.394 8.679352 
233.9999 1170.327 8.910049 
236.9999 1163.26 9.140762 
240.9999 1156.193 9.371567 
243.9999 1149.125 9.602249 
246.9999 1141.884 8.848175 
249.9999 1134.817 9.078918 
253.9999 1127.75 9.309692 
256.9998 1121.667 9.366669 
259.9998 1115.584 9.423813 
262.9998 1108.517 9.654526 
265.9998 1102.435 9.711685 
268.9998 1096.352 9.768677 
271.9998 1090.27 9.825836 
275.9998 1085.172 9.709274 
278.9998 1080.074 9.592697 
281.9998 1073.992 9.649612 
284.9998 1069.068 10.5179 
287.9998 1063.97 10.40131 
290.9998 1057.888 10.45844 
293.9998 1052.79 10.34178 
296.9998 1047.693 10.22527 
299.9998 1042.768 11.09346 
303.9998 1038.656 10.80322 
306.9998 1035.701 11.32423 
310.9998 1033.558 10.68678 
314.9998 1033.732 11.67157 
320.9998 1035.701 11.32423 
325.9998 1037.844 11.96175 
330.9998 1039.814 11.61444 
335.9998 1041.957 12.25198 
340.9998 1043.927 11.90468 
346.9998 1047.055 12.3685 
351.9998 1049.198 13.006 
357.9998 1052.153 12.48509 
362.9998 1053.311 13.29623 
368.9998 1056.439 13.76013 
373.9998 1058.409 13.41284 
379.9998 1060.552 14.05035 
384.9998 1062.522 13.70305 
390.9998 1065.65 14.16689 
395.9998 1067.793 14.80432 
401.9998 1069.762 14.4572 
407.9998 1071.906 15.09473 
412.9998 1073.875 14.74745 
418.9998 1076.019 15.38492 
424.9998 1078.162 16.02246 
430.9998 1081.116 15.50159 
436.9998 1083.259 16.13904 
442.9998 1085.403 16.77664 
448.9998 1088.357 16.25563 
454.9998 1090.5 16.8931 
460.9998 1093.628 17.35699 
466.9998 1095.772 17.99446 
473.9998 1098.726 17.47351 
479.9998 1100.87 18.11105 
485.9998 1103.998 18.57489 
492.9998 1106.141 19.21242 
498.9998 1109.095 18.69148 
505.9998 1111.238 19.32898 
511.9998 1113.382 19.96651 
517.9997 1115.351 19.61922 
524.9997 1117.495 20.25674 
530.9997 1119.638 20.89421 
536.9997 1121.781 21.53172 
543.9997 1124.736 21.01076 
550.9997 1126.879 21.64828 
557.9997 1129.022 22.28583 
564.9997 1132.15 22.74968 
571.9997 1135.278 23.2135 
578.9997 1137.248 22.86623 
585.9997 1140.376 23.33014 
592.9997 1143.504 23.79395 
600.9997 1146.632 24.25783 
607.9997 1148.776 24.89536 
614.9997 1151.903 25.35912 
622.9997 1155.031 25.82312 
630.9997 1158.16 26.2869 
637.9997 1161.288 26.75081 
645.9997 1164.416 27.21461 
653.9997 1167.544 27.67851 
660.9997 1169.513 27.33122 
669.9997 1173.8 28.60623 
676.9997 1175.77 28.25894 
685.9997 1180.056 29.53398 
693.9997 1183.184 29.9978 
701.9997 1186.312 30.46162 
710.9997 1189.44 30.92552 
718.9997 1192.568 31.38937 
726.9997 1195.697 31.85324 
734.9997 1197.839 32.49075 
742.9997 1198.824 32.31709 
750.9997 1200.968 32.95456 
760.9997 1207.224 33.88228 
772.9997 1214.465 34.63644 
782.9997 1219.563 34.7531 
791.9997 1222.691 35.21693 
800.9997 1225.992 36.66554 
810.9997 1230.105 36.95578 
820.9997 1235.203 37.0723 
830.9997 1239.49 38.34734 
841.9997 1244.587 38.46388 
850.9997 1246.731 39.10138 
860.9997 1251.017 40.37643 
869.9997 1253.16 41.01392 
883.9997 1263.356 41.24709 
898.9997 1272.74 42.63861 
941.9997 1322.905 44.96269 
0 0 0 
-1954.999 2607.116 83.54807 
-1922.999 2586.378 81.11227 
-1894.999 2570.911 79.77765 
-1872.999 2562.512 78.21252 
-1860.999 2567.435 77.3443 
-1856.999 2583.54 76.53549 
-1860.999 2611.983 76.59732 
-1864.999 2639.267 75.84814 
-1856.999 2650.274 74.92267 
-1844.999 2656.182 73.88086 
-1831.999 2660.122 73.18625 
-1819.999 2666.031 72.14432 
-1809.999 2675.068 71.56622 
-1802.999 2687.059 70.46732 
-1798.999 2705.306 70.29611 
-1794.999 2722.395 69.31375 
-1789.999 2739.485 68.33093 
-1786.999 2757.732 68.15967 
-1782.999 2775.979 67.98846 
-1775.999 2790.926 66.36847 
-1770.999 2807.203 66.54453 
-1767.999 2827.42 66.02585 
-1762.999 2844.51 65.04358 
-1762.999 2869.824 64.64169 
-1751.999 2877.703 63.25244 
0 0 0 
0 0 0 
-732.9997 1237.406 26.52963 
-731.9997 1247.427 25.77802 
-731.9997 1258.608 25.83742 
-756.9997 1314.508 26.13483 
-779.9997 1366.47 27.12672 
-791.9997 1400.011 27.30516 
-795.9997 1421.386 27.59767 
-799.9997 1441.604 27.07916 
-802.9997 1459.851 26.90797 
-804.9997 1477.114 26.91025 
-805.9997 1493.392 27.08643 
-806.9997 1510.481 26.10399 
-807.9997 1526.759 26.28003 
-807.9997 1542.052 26.6297 
-807.9997 1556.186 26.16824 
-807.9997 1571.306 25.53297 
-806.9997 1585.614 26.0563 
-805.9997 1598.764 25.76851 
-804.9997 1613.883 25.13338 
-802.9997 1626.048 25.01935 
-799.9997 1636.07 24.26752 
-796.9997 1645.28 24.67426 
-791.9997 1652.348 24.44376 
-786.9997 1658.256 23.40173 
-782.9997 1667.467 23.80847 
0 0 0 
0 0 0 
0 0 0 
0 0 0 
0 0 0 
-2705.999 6138.667 77.20337 
-2690.999 6172.034 76.39648 
0 0 0 
0 0 0 
0 0 0 
-780.9997 1872.129 21.23047 
-772.9997 1874.098 20.88315 
-764.9997 1874.098 20.88315 
-754.9997 1872.94 20.07199 
-745.9997 1871.955 20.24579 
-736.9997 1869.812 19.60815 
-727.9997 1867.668 18.97076 
-718.9997 1866.51 18.15952 
-708.9997 1864.541 18.50656 
-700.9997 1863.382 17.69559 
-690.9997 1861.239 17.05807 
-681.9997 1858.111 16.59424 
-672.9997 1857.126 16.76791 
-663.9997 1854.983 16.13022 
-654.9997 1853.013 16.47769 
-645.9997 1851.855 15.6665 
-636.9997 1849.711 15.02914 
-628.9997 1848.727 15.20282 
-619.9997 1846.583 14.56512 
-610.9997 1844.44 13.9277 
-601.9997 1842.47 14.27478 
-593.9997 1841.312 13.46381 
-585.9997 1840.327 13.63742 
-576.9997 1838.184 12.99994 
-568.9997 1838.184 12.99994 
-559.9997 1836.04 12.36243 
-551.9997 1833.897 11.72482 
-543.9997 1832.913 11.89841 
-534.9997 1831.927 12.07178 
-526.9997 1829.784 11.4342 
-518.9997 1828.626 10.62305 
-510.9998 1827.641 10.79684 
-502.9998 1827.641 10.79684 
-494.9998 1825.498 10.15927 
-486.9998 1825.498 10.15927 
-478.9998 1824.339 9.348083 
-470.9998 1823.354 9.52182 
-462.9998 1822.37 9.695526 
-454.9998 1822.196 8.710632 
-446.9998 1821.211 8.884277 
-438.9998 1820.226 9.057861 
-431.9998 1822.196 8.710632 
-424.9998 1821.038 7.899475 
-416.9998 1823.181 8.537018 
-408.9998 1821.038 7.899475 
-400.9998 1818.894 7.261993 
-392.9998 1815.94 7.782837 
-385.9998 1815.766 6.798065 
-376.9998 1809.683 6.855194 
-369.9998 1812.812 7.319092 
0 0 0 
0 0 0 
0 0 0 
0 0 0 
0 0 0 
0 0 0 
0 0 0 
0 0 0 
0 0 0 
0 0 0 
0 0 0 
0 0 0 
0 0 0 
0 0 0 
0 0 0 
0 0 0 
0 0 0 
0 0 0 
0 0 0 
-299.9998 2438.034 5.726746 
-289.9998 2440.988 5.205658 
-279.9998 2437.86 4.741791 
-269.9998 2435.89 5.089264 
-259.9998 2430.792 4.972534 
-249.9999 2428.65 4.335083 
-239.9999 2427.665 4.508881 
-229.9999 2423.552 4.218414 
-220.9999 2422.566 4.392029 
-210.9999 2418.454 4.101959 
-200.9999 2421.582 4.565735 
-190.9999 2416.484 4.449066 
-181.9999 2419.439 3.928314 
-171.9999 2420.424 3.754486 
-161.9999 2418.454 4.101959 
-152.9999 2417.469 4.275482 
0 0 0 
0 0 0 
0 0 0 
-114 2412.197 3.174072 
0 0 0 
0 0 0 
-85.99996 2411.213 3.347748 
-75.99996 2404.146 3.578644 
-65.99996 2402.002 2.941132 
-56.99998 2404.146 3.578644 
-46.99998 2400.032 3.288269 
-37.99998 2401.018 3.114746 
-27.99999 2401.018 3.114746 
-18.99999 2399.048 3.462036 
-8.999995 2395.92 2.998108 
0 2393.95 3.345428 
9.999995 2388.852 3.228821 
18.99999 2387.868 3.402435 
27.99999 2387.868 3.402435 
37.99998 2386.883 3.576111 
46.99998 2388.852 3.228821 
56.99998 2388.852 3.228821 
65.99996 2384.74 2.93869 
74.99996 2385.898 3.749817 
84.99996 2381.785 3.459595 
93.99996 2381.785 3.459595 
104 2379.815 3.806976 
113 2377.672 3.169403 
122 2376.687 3.343048 
131.9999 2375.703 3.516632 
140.9999 2373.733 3.863983 
149.9999 2370.605 3.400177 
158.9999 2367.651 3.921021 
167.9999 2365.681 4.268219 
177.9999 2363.537 3.630829 
186.9999 2359.598 4.32547 
195.9999 2357.455 3.688019 
204.9999 2354.501 4.208954 
213.9999 2351.546 4.729858 
222.9999 2346.449 4.61322 
231.9999 2342.336 4.322998 
240.9999 2336.253 4.380127 
249.9999 2332.314 5.074738 
258.9998 2328.201 4.784393 
266.9998 2324.088 4.494293 
275.9998 2317.021 4.725006 
283.9998 2309.954 4.955902 
0 0 0 
0 0 0 
185.9999 1373.483 3.550751 
186.9999 1347.01 3.141647 
0 0 0 
0 0 0 
192.9999 1275.989 3.479462 
195.9999 1264.809 3.420074 
199.9999 1253.629 3.360565 
202.9999 1244.592 3.938553 
206.9999 1235.381 3.53183 
209.9999 1226.345 4.109848 
212.9999 1216.149 3.876724 
216.9999 1208.097 4.280991 
219.9999 1199.871 3.700623 
223.9999 1190.834 4.278625 
226.9999 1183.767 4.509354 
229.9999 1175.541 3.928894 
233.9999 1168.474 4.159637 
236.9999 1161.407 4.390442 
239.9999 1154.339 4.621185 
243.9999 1147.272 4.851837 
246.9999 1140.205 5.082611 
249.9999 1134.122 5.139709 
252.9999 1126.881 4.38559 
256.9998 1120.972 5.427475 
259.9998 1114.89 5.484589 
262.9998 1108.807 5.541687 
265.9998 1102.725 5.598816 
268.9998 1096.643 5.655838 
271.9998 1089.575 5.886566 
275.9998 1084.477 5.77005 
278.9998 1078.395 5.826981 
281.9998 1073.297 5.710312 
284.9998 1068.2 5.593857 
287.9998 1063.276 6.46199 
290.9998 1057.193 6.519104 
293.9998 1052.096 6.402496 
296.9998 1046.998 6.286011 
299.9998 1041.9 6.169373 
302.9998 1037.961 6.863983 
306.9998 1034.833 6.400238 
310.9998 1032.863 6.747528 
314.9998 1032.863 6.747528 
319.9998 1035.007 7.38501 
325.9998 1036.976 7.037704 
330.9998 1039.12 7.675232 
335.9998 1041.089 7.327927 
340.9998 1043.232 7.965424 
346.9998 1046.36 8.429245 
351.9998 1048.33 8.081924 
357.9998 1051.458 8.545853 
362.9998 1052.443 8.372131 
367.9998 1055.571 8.836075 
373.9998 1057.714 9.473633 
378.9998 1059.684 9.126328 
384.9998 1061.827 9.76384 
390.9998 1064.955 10.22763 
395.9998 1066.925 9.880325 
400.9998 1067.91 9.70668 
406.9998 1070.053 10.34421 
412.9998 1073.181 10.80809 
418.9998 1075.151 10.46094 
424.9998 1077.294 11.09843 
429.9998 1079.437 11.73599 
435.9998 1081.406 11.3887 
441.9998 1083.55 12.02614 
447.9998 1085.519 11.67883 
453.9998 1087.663 12.31639 
459.9998 1090.791 12.78021 
465.9998 1092.934 13.41772 
471.9998 1094.904 13.07042 
478.9998 1098.032 13.53427 
484.9998 1100.175 14.17183 
490.9998 1103.129 13.65092 
497.9998 1106.257 14.11473 
503.9998 1108.401 14.75224 
510.9998 1111.529 15.21609 
516.9997 1113.498 14.8688 
523.9997 1115.641 15.50629 
530.9997 1118.77 15.97018 
536.9997 1120.913 16.6077 
543.9997 1124.041 17.07152 
550.9997 1126.995 16.5506 
557.9997 1130.123 17.0145 
564.9997 1133.252 17.47838 
572.9997 1136.38 17.9422 
578.9997 1138.523 18.57974 
586.9997 1141.651 19.04353 
594.9997 1145.764 19.33372 
601.9997 1147.734 18.98642 
608.9997 1150.861 19.45035 
616.9997 1153.99 19.91422 
623.9997 1157.118 20.37811 
631.9997 1160.246 20.84193 
639.9997 1164.358 21.13214 
646.9997 1166.502 21.76961 
654.9997 1169.63 22.23346 
662.9997 1171.773 22.87103 
670.9997 1174.901 23.33482 
678.9997 1178.03 23.79881 
686.9997 1181.158 24.26262 
693.9997 1183.301 24.90007 
701.9997 1186.429 25.36395 
710.9997 1190.542 25.65421 
719.9997 1193.67 26.11801 
727.9997 1196.798 26.58192 
735.9997 1198.941 27.21941 
743.9997 1200.911 26.8721 
750.9997 1201.085 27.85695 
759.9997 1205.197 28.14719 
770.9997 1212.438 28.90115 
781.9997 1218.694 29.82904 
792.9997 1223.792 29.94551 
801.9997 1227.905 30.23573 
812.9997 1233.176 31.33717 
823.9997 1239.432 32.26492 
833.9997 1243.545 32.55508 
842.9997 1246.673 33.01891 
853.9997 1251.945 34.12027 
863.9997 1255.073 34.58417 
885.9997 1276.622 35.86159 
0 0 0 
1443.999 2045.272 58.73422 
1456.999 2045.445 59.71902 
-1982.999 2622.469 72.71753 
-1958.999 2612.099 71.49966 
-1927.999 2592.52 69.87485 
-1897.999 2573.925 68.07666 
-1873.999 2563.556 66.85867 
-1860.999 2566.337 65.35278 
-1855.999 2582.441 64.54416 
-1860.999 2610.884 64.60599 
-1863.999 2637.183 64.03043 
-1854.999 2648.19 63.10492 
-1843.999 2654.099 62.06317 
-1830.999 2658.038 61.36856 
-1817.999 2661.803 59.68915 
-1806.999 2669.856 59.28482 
-1798.999 2680.862 58.35928 
-1793.999 2696.967 57.55063 
-1789.999 2714.056 56.56815 
-1784.999 2731.319 56.57031 
-1781.999 2749.392 55.41434 
-1776.999 2766.482 54.43182 
-1772.999 2784.729 54.26041 
-1768.999 2802.803 53.1044 
-1762.999 2819.081 53.28055 
-1759.999 2839.124 51.77728 
-1754.999 2856.387 51.77948 
-1746.999 2869.363 50.50677 
0 0 0 
0 0 0 
-731.9997 1235.379 20.79445 
-731.9997 1246.559 20.85397 
-729.9997 1255.596 20.27589 
-741.9997 1286.993 19.81689 
-766.9997 1343.068 21.09904 
-780.9997 1380.548 20.58267 
-788.9997 1408.006 20.81828 
-791.9997 1427.239 20.47331 
-795.9997 1447.629 20.93959 
-799.9997 1467.846 20.42108 
-800.9997 1484.124 20.59712 
-801.9997 1501.213 19.61465 
-802.9997 1517.491 19.79076 
-804.9997 1534.754 19.79315 
-804.9997 1549.873 19.15794 
-804.9997 1564.993 18.52287 
-803.9997 1579.3 19.04617 
-802.9997 1593.435 18.58469 
-801.9997 1607.57 18.12311 
-800.9997 1621.704 17.66162 
-798.9997 1632.885 17.72128 
-795.9997 1642.906 16.96951 
-791.9997 1650.958 16.56528 
-786.9997 1658.026 16.33447 
-781.9997 1665.093 16.10358 
0 0 0 
0 0 0 
0 0 0 
0 0 0 
0 0 0 
0 0 0 
0 0 0 
0 0 0 
0 0 0 
0 0 0 
-781.9997 1872.883 13.9895 
-773.9997 1874.852 13.64233 
-764.9997 1874.679 12.65744 
-755.9997 1873.694 12.83109 
-746.9997 1872.536 12.01987 
-736.9997 1870.392 11.38254 
-727.9997 1868.249 10.74484 
-718.9997 1866.279 11.09229 
-709.9997 1865.121 10.28101 
-700.9997 1862.978 9.643463 
-690.9997 1861.008 9.990845 
-681.9997 1858.865 9.353271 
-672.9997 1856.721 8.71579 
-663.9997 1855.737 8.889435 
-654.9997 1853.594 8.25177 
-646.9997 1852.608 8.425537 
-637.9997 1850.466 7.788025 
-628.9997 1849.307 6.976898 
-619.9997 1847.337 7.324188 
-611.9997 1845.194 6.686676 
-602.9997 1843.051 6.049347 
-593.9997 1842.066 6.222809 
-585.9997 1839.923 5.585388 
-576.9997 1838.938 5.759033 
-568.9997 1837.78 4.947784 
-559.9997 1835.81 5.295074 
-551.9997 1833.667 4.657623 
-543.9997 1832.682 4.831177 
-534.9997 1831.523 4.02005 
-526.9997 1829.554 4.367462 
-518.9997 1828.395 3.556122 
-509.9998 1825.267 3.092041 
-501.9998 1824.282 3.265625 
-493.9998 1821.154 2.801788 
-484.9998 1818.026 2.337952 
-476.9998 1817.041 2.511627 
-468.9998 1815.883 1.700378 
0 0 0 
0 0 0 
0 0 0 
0 0 0 
0 0 0 
0 0 0 
0 0 0 
0 0 0 
0 0 0 
0 0 0 
0 0 0 
0 0 0 
0 0 0 
0 0 0 
0 0 0 
0 0 0 
-462.9998 2466.246 -1.278778 
-451.9998 2463.118 -1.742645 
-440.9998 2458.02 -1.859192 
-430.9998 2455.876 -2.496582 
-420.9998 2455.876 -2.496582 
-410.9998 2454.892 -2.32309 
-399.9998 2450.779 -2.613251 
-389.9998 2449.794 -2.439697 
-379.9998 2445.681 -2.729889 
-368.9998 2442.553 -3.193573 
-358.9998 2438.44 -3.483765 
-348.9998 2437.455 -3.310181 
-338.9998 2436.297 -4.12146 
-328.9998 2436.297 -4.12146 
-318.9998 2436.297 -4.12146 
-309.9998 2437.282 -4.294891 
-299.9998 2436.297 -4.12146 
-289.9998 2436.297 -4.12146 
-279.9998 2435.139 -4.932617 
-269.9998 2433.169 -4.585327 
-259.9998 2430.041 -5.049042 
-249.9999 2427.087 -4.528229 
-239.9999 2424.943 -5.165833 
-229.9999 2421.989 -4.644775 
-219.9999 2419.845 -5.282257 
-210.9999 2417.876 -4.934998 
-200.9999 2415.732 -5.572571 
-190.9999 2415.732 -5.572571 
-181.9999 2416.717 -5.746094 
-171.9999 2415.732 -5.572571 
-161.9999 2414.747 -5.398926 
-152.9999 2412.604 -6.036377 
-142.9999 2410.635 -5.689056 
-132.9999 2406.522 -5.979309 
-123 2404.552 -5.631927 
-114 2402.409 -6.269501 
-104 2401.425 -6.095947 
-94.99996 2399.455 -5.748505 
-84.99996 2399.455 -5.748505 
-75.99996 2399.455 -5.748505 
-65.99996 2398.296 -6.559692 
-56.99998 2397.311 -6.385956 
-46.99998 2395.342 -6.038727 
-37.99998 2394.357 -5.865112 
-27.99999 2393.198 -6.676239 
-18.99999 2392.213 -6.502686 
-8.999995 2389.259 -5.98172 
0 2386.131 -6.445587 
9.999995 2383.177 -5.924774 
18.99999 2382.019 -6.735718 
27.99999 2381.034 -6.562195 
37.99998 2381.034 -6.562195 
46.99998 2380.049 -6.388458 
56.99998 2380.049 -6.388458 
65.99996 2378.079 -6.041107 
74.99996 2376.11 -5.693878 
83.99996 2372.982 -6.157715 
93.99996 2371.997 -5.983978 
103 2371.012 -5.810455 
112 2370.027 -5.636719 
122 2367.884 -6.274384 
130.9999 2366.899 -6.100708 
139.9999 2364.929 -5.753326 
149.9999 2363.945 -5.579742 
158.9999 2360.816 -6.04361 
167.9999 2359.832 -5.869995 
176.9999 2356.877 -5.34903 
185.9999 2354.907 -5.001709 
195.9999 2353.923 -4.828125 
204.9999 2352.764 -5.639069 
213.9999 2350.795 -5.29187 
222.9999 2348.825 -4.944489 
231.9999 2345.871 -4.423645 
240.9999 2342.742 -4.887512 
249.9999 2338.803 -4.192902 
258.9998 2334.691 -4.483154 
267.9998 2331.736 -3.962158 
276.9998 2327.623 -4.252472 
285.9998 2323.51 -4.542542 
294.9998 2320.556 -4.021667 
303.9998 2317.601 -3.500793 
312.9998 2314.474 -3.964447 
321.9998 2311.519 -3.443695 
329.9998 2307.406 -3.733826 
0 0 0 
0 0 0 
0 0 0 
0 0 0 
203.9999 1248.648 -1.853683 
206.9999 1236.483 -1.739487 
209.9999 1226.461 -0.9878998 
213.9999 1217.251 -1.394577 
216.9999 1209.198 -0.9902802 
219.9999 1200.161 -0.4123077 
223.9999 1191.936 -0.9927063 
226.9999 1183.884 -0.5882568 
230.9999 1176.816 -0.3575745 
233.9999 1169.749 -0.1268311 
236.9999 1162.682 0.1038513 
240.9999 1154.456 -0.4765167 
243.9999 1148.374 -0.4194031 
246.9999 1140.321 -0.01502991 
249.9999 1133.254 0.2156525 
252.9999 1126.187 0.4464417 
256.9998 1121.089 0.3297882 
259.9998 1114.022 0.5605927 
262.9998 1107.939 0.6176453 
265.9998 1101.857 0.6747437 
268.9998 1094.789 0.9054413 
271.9998 1088.707 0.9625549 
274.9998 1083.609 0.8457336 
277.9998 1077.527 0.9029541 
281.9998 1072.603 1.771103 
284.9998 1067.505 1.654602 
287.9998 1062.407 1.53801 
290.9998 1056.325 1.595032 
293.9998 1051.227 1.478439 
296.9998 1046.303 2.346771 
299.9998 1041.206 2.230164 
302.9998 1037.093 1.939987 
306.9998 1034.138 2.460983 
310.9998 1033.154 2.634583 
314.9998 1033.154 2.634583 
319.9998 1034.138 2.460983 
324.9998 1036.282 3.098511 
330.9998 1038.425 3.735992 
335.9998 1040.395 3.388687 
340.9998 1042.538 4.026215 
346.9998 1045.492 3.505203 
351.9998 1047.635 4.14267 
356.9998 1049.605 3.795395 
362.9998 1051.748 4.432892 
367.9998 1053.718 4.085663 
372.9998 1055.861 4.723175 
378.9998 1058.004 5.360687 
383.9998 1059.974 5.013397 
389.9998 1062.117 5.650955 
394.9998 1064.087 5.303635 
400.9998 1066.23 5.941132 
406.9998 1068.2 5.593857 
412.9998 1071.328 6.057602 
417.9998 1073.471 6.695175 
423.9998 1075.441 6.34787 
429.9998 1078.569 6.811966 
435.9998 1080.712 7.449432 
441.9998 1082.681 7.102158 
447.9998 1085.81 7.565994 
453.9998 1087.953 8.203476 
459.9998 1090.907 7.682587 
465.9998 1093.051 8.320114 
472.9998 1096.179 8.78392 
478.9998 1099.307 9.247757 
485.9998 1102.261 8.726822 
492.9998 1105.389 9.190704 
498.9998 1107.532 9.828232 
504.9998 1110.661 10.29208 
511.9998 1112.63 9.944809 
517.9997 1114.773 10.58228 
523.9997 1116.917 11.21983 
530.9997 1119.871 10.69884 
537.9997 1122.999 11.16269 
544.9997 1126.127 11.62651 
551.9997 1129.255 12.09042 
559.9997 1132.383 12.55429 
566.9997 1135.511 13.01816 
573.9997 1138.639 13.48198 
580.9997 1141.768 13.94589 
588.9997 1144.722 13.4249 
595.9997 1147.85 13.88882 
603.9997 1151.963 14.17903 
611.9997 1156.076 14.46924 
619.9997 1160.362 15.74426 
626.9997 1162.332 15.39696 
634.9997 1166.445 15.68719 
642.9997 1169.573 16.15103 
649.9997 1170.731 16.9622 
656.9997 1172.875 17.59975 
664.9997 1174.844 17.25235 
671.9997 1176.987 17.88986 
679.9997 1180.115 18.35378 
687.9997 1183.244 18.81761 
695.9997 1185.387 19.45515 
704.9997 1189.5 19.74532 
711.9997 1191.643 20.38287 
720.9997 1194.771 20.84671 
729.9997 1199.869 20.96323 
738.9997 1202.997 21.42714 
746.9997 1205.14 22.06461 
751.9997 1203.171 22.41194 
760.9997 1206.299 22.87579 
769.9997 1209.427 23.33963 
778.9997 1213.54 23.62991 
790.9997 1221.765 24.2104 
801.9997 1228.021 25.13812 
815.9997 1237.232 25.54483 
827.9997 1244.473 26.29889 
838.9997 1250.729 27.22661 
849.9997 1255.827 27.34326 
858.9997 1258.955 27.80705 
869.9997 1263.241 29.08215 
0 0 0 
0 0 0 
1453.999 2058.828 49.23593 
1470.999 2064.1 50.33725 
-1988.999 2629.422 60.32175 
-1966.999 2622.181 59.56769 
-1934.999 2601.616 58.11676 
-1903.999 2580.878 55.68094 
-1876.999 2566.396 54.17264 
-1860.999 2566.222 53.18784 
-1853.999 2578.388 53.07373 
-1854.999 2602.544 51.86047 
-1857.999 2627.859 51.45844 
-1850.999 2640.835 50.18591 
-1838.999 2646.917 50.12897 
-1825.999 2650.683 48.4494 
-1811.999 2653.637 47.92844 
-1801.999 2661.516 46.53928 
-1792.999 2671.537 45.78772 
-1789.999 2689.785 45.61624 
-1784.999 2706.875 44.63388 
-1779.999 2721.994 43.99863 
-1775.999 2740.068 42.8425 
-1770.999 2757.157 41.85999 
-1767.999 2776.389 41.51511 
-1763.999 2795.621 41.17007 
-1760.999 2814.68 39.84064 
-1757.999 2835.882 39.14844 
-1753.999 2854.13 38.97696 
-1749.999 2874.346 38.45856 
0 0 0 
0 0 0 
-730.9997 1233.353 15.05925 
-729.9997 1242.389 14.48119 
-727.9997 1251.6 14.88803 
-730.9997 1267.704 14.07921 
-750.9997 1315.553 14.78107 
-771.9997 1364.213 14.32422 
-780.9997 1392.656 14.38602 
-786.9997 1416.986 14.15778 
-790.9997 1437.203 13.63916 
-793.9997 1456.609 14.27907 
-796.9997 1475.841 13.93422 
-797.9997 1491.946 13.12537 
-799.9997 1510.193 12.95427 
-799.9997 1526.471 13.13014 
-800.9997 1542.575 12.32138 
-801.9997 1558.853 12.49753 
-801.9997 1573.972 11.8624 
-800.9997 1588.107 11.40079 
-799.9997 1603.226 10.76569 
-799.9997 1617.535 11.28894 
-797.9997 1630.684 11.00116 
-794.9997 1640.706 10.24951 
-790.9997 1649.743 9.671478 
-785.9997 1656.81 9.440735 
-781.9997 1663.877 9.20993 
-776.9997 1671.93 8.805634 
-770.9997 1675.869 8.111023 
0 0 0 
0 0 0 
0 0 0 
0 0 0 
-2692.999 6173.026 24.43469 
0 0 0 
0 0 0 
0 0 0 
-781.9997 1873.463 5.763794 
-773.9997 1875.433 5.416473 
-764.9997 1875.259 4.431549 
-755.9997 1874.274 4.605194 
-746.9997 1872.131 3.967804 
-737.9997 1871.146 4.141418 
-727.9997 1869.003 3.504059 
-718.9997 1866.86 2.866455 
-709.9997 1865.875 3.04007 
-700.9997 1863.732 2.402649 
