ply
format ascii 1.0
element vertex 3439
property float x
property float y
property float z
end_header
-763 -237 1343
-768 -240 1358
-772 -242 1372
-775 -244 1384
-778 -246 1396
-781 -248 1407
-783 -249 1417
-785 -251 1429
-787 -253 1438
-788 -254 1448
-790 -256 1458
-792 -257 1468
-793 -259 1477
-793 -260 1486
-794 -261 1495
-795 -263 1504
-796 -264 1512
-796 -265 1521
-797 -267 1529
-797 -268 1538
-797 -269 1544
-796 -270 1551
-797 -271 1560
-796 -272 1567
-796 -273 1574
-795 -274 1580
-795 -275 1588
-795 -276 1595
-795 -277 1603
-793 -278 1608
-791 -279 1613
-790 -280 1619
-788 -280 1622
-786 -281 1627
-784 -281 1631
-782 -282 1635
-779 -282 1638
-778 -283 1645
-777 -284 1650
-776 -284 1656
0 0 0
0 0 0
0 0 0
0 0 0
0 0 0
0 0 0
0 0 0
0 0 0
0 0 0
0 0 0
0 0 0
0 0 0
0 0 0
0 0 0
0 0 0
0 0 0
0 0 0
0 0 0
0 0 0
0 0 0
0 0 0
0 0 0
-769 -315 1861
-762 -314 1856
-754 -312 1847
-750 -312 1848
-749 -313 1855
-751 -316 1871
0 0 0
0 0 0
0 0 0
0 0 0
0 0 0
0 0 0
0 0 0
0 0 0
0 0 0
0 0 0
0 0 0
0 0 0
0 0 0
-693 -315 1879
0 0 0
0 0 0
0 0 0
0 0 0
0 0 0
0 0 0
0 0 0
0 0 0
0 0 0
0 0 0
0 0 0
0 0 0
0 0 0
0 0 0
0 0 0
0 0 0
0 0 0
0 0 0
0 0 0
0 0 0
0 0 0
0 0 0
0 0 0
0 0 0
0 0 0
0 0 0
0 0 0
0 0 0
0 0 0
0 0 0
0 0 0
0 0 0
0 0 0
-691 -389 2356
-688 -390 2364
-684 -390 2368
-682 -392 2379
-679 -393 2387
-676 -394 2393
-672 -395 2398
-668 -395 2404
-665 -396 2409
-660 -396 2412
-656 -397 2416
-652 -398 2421
-649 -398 2427
-645 -399 2432
-641 -400 2436
-636 -400 2437
-631 -400 2438
-625 -399 2437
-620 -399 2438
-616 -400 2440
-611 -400 2442
-606 -400 2443
-601 -400 2445
-596 -400 2446
-590 -399 2440
-585 -399 2441
-579 -398 2438
-574 -398 2438
-568 -398 2437
-564 -398 2439
-558 -398 2438
-553 -397 2437
-548 -397 2437
-542 -397 2435
-537 -396 2432
-531 -396 2429
-526 -396 2429
-522 -396 2434
-516 -396 2431
-511 -396 2434
-506 -396 2432
-501 -395 2432
-495 -395 2429
-490 -395 2428
-485 -394 2427
-480 -394 2427
-474 -393 2422
-469 -393 2423
-463 -393 2421
-458 -393 2420
-453 -393 2421
-449 -393 2423
-443 -392 2420
-438 -392 2420
-433 -392 2418
-427 -391 2416
-422 -391 2415
-417 -391 2413
-412 -391 2415
-407 -391 2416
-403 -391 2417
-397 -391 2415
-392 -390 2412
-387 -390 2412
-381 -389 2408
-377 -390 2410
-372 -390 2411
-367 -389 2409
-362 -389 2410
-357 -390 2412
-352 -389 2409
-347 -389 2408
-343 -389 2412
-337 -389 2409
-332 -388 2407
-327 -388 2405
-322 -388 2404
-317 -387 2402
-311 -387 2398
-307 -387 2402
-302 -387 2401
-297 -387 2401
-292 -387 2400
-287 -387 2400
-282 -386 2397
-277 -386 2398
-272 -386 2396
-267 -385 2392
-262 -385 2391
-257 -385 2389
-252 -385 2391
-247 -385 2392
-242 -385 2392
-238 -385 2393
-233 -385 2395
-228 -385 2395
-223 -385 2392
-218 -384 2391
-213 -384 2388
-208 -383 2384
-203 -383 2385
-198 -383 2384
-193 -383 2383
-189 -383 2382
-184 -382 2380
-179 -382 2379
-174 -382 2380
-169 -382 2380
-164 -382 2377
-160 -382 2378
-155 -382 2379
-150 -381 2374
-145 -381 2376
-140 -382 2377
-136 -382 2379
-131 -381 2375
-126 -381 2374
-121 -381 2375
-116 -381 2373
-112 -381 2372
-107 -381 2373
-102 -380 2369
-97 -380 2367
-92 -380 2366
-88 -379 2365
-83 -380 2366
-78 -379 2364
-73 -379 2363
-68 -379 2361
-64 -379 2360
-59 -378 2359
-54 -378 2358
-49 -378 2358
-45 -378 2359
-40 -378 2359
-35 -379 2361
-31 -378 2359
-26 -378 2358
-21 -378 2358
-16 -378 2357
-12 -378 2356
-7 -378 2356
-2 -377 2354
2 -377 2353
7 -377 2349
12 -376 2347
17 -376 2346
21 -376 2345
26 -376 2346
31 -377 2348
35 -376 2347
40 -377 2348
45 -376 2347
49 -376 2347
54 -376 2345
59 -376 2346
63 -376 2345
68 -376 2343
73 -376 2341
77 -375 2340
82 -375 2339
87 -375 2340
91 -375 2340
96 -375 2340
101 -375 2340
105 -375 2337
110 -375 2337
115 -375 2336
119 -375 2336
124 -375 2334
129 -375 2335
133 -374 2332
138 -374 2332
143 -374 2332
147 -375 2333
152 -374 2332
157 -375 2332
161 -374 2331
166 -374 2328
171 -374 2329
175 -374 2328
180 -374 2327
184 -374 2327
189 -374 2326
193 -373 2322
198 -373 2321
203 -373 2321
207 -373 2320
212 -373 2320
217 -373 2320
221 -373 2320
226 -373 2319
230 -373 2317
235 -373 2316
240 -373 2315
244 -373 2315
249 -372 2313
253 -372 2313
258 -373 2314
263 -372 2313
267 -372 2312
272 -372 2311
276 -372 2309
281 -372 2308
285 -372 2307
290 -372 2309
295 -372 2308
300 -372 2308
304 -372 2308
309 -372 2307
313 -372 2303
317 -371 2300
322 -371 2299
326 -371 2298
331 -371 2296
336 -371 2297
340 -371 2297
345 -371 2297
349 -371 2294
354 -371 2293
357 -369 2285
361 -368 2279
364 -367 2268
367 -365 2259
371 -364 2251
375 -364 2250
378 -363 2242
380 -360 2223
381 -357 2207
385 -356 2200
388 -355 2194
393 -356 2194
397 -355 2192
401 -355 2189
405 -354 2185
408 -354 2181
412 -353 2173
416 -352 2172
419 -352 2167
424 -352 2169
429 -352 2170
434 -353 2173
438 -352 2168
440 -351 2160
0 0 0
0 0 0
0 0 0
0 0 0
0 0 0
0 0 0
0 0 0
0 0 0
0 0 0
0 0 0
0 0 0
0 0 0
0 0 0
272 -190 1164
269 -187 1143
271 -187 1143
270 -184 1125
272 -184 1127
0 0 0
274 -182 1112
273 -180 1102
275 -180 1098
276 -179 1094
277 -178 1089
279 -178 1087
279 -177 1080
280 -176 1075
282 -176 1071
283 -175 1068
284 -175 1064
286 -174 1062
287 -174 1058
289 -173 1055
290 -173 1051
292 -172 1049
293 -172 1045
294 -171 1042
296 -171 1039
297 -171 1036
299 -170 1034
300 -170 1031
302 -170 1029
303 -169 1026
305 -169 1024
306 -169 1021
308 -168 1020
310 -169 1020
313 -169 1021
315 -169 1022
318 -169 1024
321 -170 1025
323 -170 1026
326 -170 1027
329 -170 1028
331 -171 1029
334 -171 1030
337 -171 1032
339 -171 1032
342 -172 1033
345 -172 1035
348 -172 1037
350 -173 1038
353 -173 1040
356 -173 1041
359 -174 1042
361 -174 1043
364 -174 1045
367 -175 1047
370 -175 1049
373 -175 1051
377 -176 1053
380 -176 1055
383 -177 1057
386 -177 1060
389 -178 1061
393 -178 1064
395 -178 1065
398 -179 1065
401 -179 1067
404 -179 1069
409 -180 1074
412 -181 1077
415 -181 1077
418 -182 1080
422 -182 1083
425 -183 1085
429 -183 1087
432 -184 1090
435 -184 1091
439 -184 1093
443 -185 1097
447 -186 1102
451 -187 1104
455 -188 1109
458 -188 1110
461 -188 1111
463 -188 1109
467 -188 1111
469 -188 1111
473 -189 1114
476 -189 1114
479 -189 1115
484 -190 1120
486 -190 1119
491 -191 1124
494 -192 1126
499 -193 1130
502 -193 1130
506 -194 1134
510 -194 1136
513 -194 1137
516 -194 1137
520 -195 1140
524 -196 1142
527 -196 1144
531 -197 1147
534 -197 1147
538 -197 1150
541 -198 1150
545 -198 1151
547 -198 1151
552 -199 1154
554 -198 1152
559 -199 1157
563 -200 1159
568 -201 1163
571 -201 1164
574 -201 1165
577 -201 1164
580 -202 1165
585 -202 1168
588 -203 1169
594 -204 1174
599 -205 1178
603 -205 1180
607 -206 1182
611 -206 1185
614 -206 1185
619 -207 1189
622 -207 1189
627 -208 1191
630 -208 1191
633 -208 1192
637 -209 1193
640 -209 1193
644 -209 1195
648 -210 1196
650 -210 1194
652 -210 1193
655 -209 1191
654 -208 1185
655 -208 1181
657 -208 1179
659 -207 1176
661 -207 1174
663 -207 1172
665 -207 1171
667 -207 1169
670 -207 1168
672 -207 1167
677 -207 1169
682 -208 1173
688 -209 1177
692 -209 1178
695 -210 1179
700 -210 1181
703 -211 1181
707 -211 1182
712 -212 1186
719 -213 1191
724 -214 1194
730 -215 1199
736 -216 1203
0 0 0
743 -216 1204
749 -217 1208
756 -218 1213
0 0 0
764 -219 1215
0 0 0
0 0 0
759 -215 1191
753 -213 1177
754 -212 1172
757 -212 1172
760 -212 1171
767 -214 1177
776 -216 1186
0 0 0
790 -218 1197
801 -220 1207
0 0 0
0 0 0
0 0 0
838 -227 1241
845 -228 1246
848 -228 1245
852 -229 1246
857 -229 1248
862 -230 1249
866 -230 1250
872 -231 1253
878 -232 1256
892 -235 1270
933 -245 1323
0 0 0
0 0 0
0 0 0
0 0 0
0 0 0
1475 -379 2038
1476 -378 2031
0 0 0
0 0 0
0 0 0
0 0 0
0 0 0
0 0 0
0 0 0
0 0 0
-1827 -454 2450
-1819 -453 2450
-1816 -454 2456
-1815 -455 2465
-1813 -456 2473
-1811 -457 2481
-1811 -459 2492
-1810 -460 2501
-1807 -461 2508
-1808 -462 2519
-1808 -464 2530
-1802 -464 2533
-1798 -464 2538
-1794 -465 2544
-1790 -465 2549
-1786 -466 2555
-1788 -468 2568
-1787 -469 2579
-1788 -471 2591
-1784 -471 2596
-1783 -473 2606
-1781 -474 2615
-1778 -474 2622
-1776 -476 2631
-1775 -477 2641
-1772 -478 2648
-1768 -478 2653
-1767 -480 2664
-1767 -481 2676
-1766 -483 2686
-1765 -484 2697
-1762 -485 2704
-1761 -486 2715
-1745 -483 2701
0 0 0
0 0 0
0 0 0
-2333 -656 3678
-2319 -654 3672
-2314 -655 3680
-2301 -654 3677
-2289 -653 3674
-2276 -651 3670
0 0 0
0 0 0
0 0 0
-3408 -989 5595
0 0 0
0 0 0
0 0 0
0 0 0
0 0 0
-726 -215 1225
-721 -215 1222
-718 -215 1223
-714 -214 1222
-714 -215 1227
-713 -216 1232
-719 -218 1248
-734 -224 1280
-752 -230 1318
-758 -233 1334
-764 -236 1352
-769 -238 1367
-772 -240 1379
-775 -242 1390
-777 -243 1400
-780 -245 1412
-781 -247 1421
-783 -248 1432
-785 -250 1443
-787 -252 1453
-789 -253 1463
-790 -255 1472
-791 -256 1481
-792 -257 1491
-793 -259 1500
-794 -260 1510
-795 -262 1519
-795 -263 1526
-796 -264 1535
-796 -265 1544
-796 -266 1550
-796 -267 1558
-795 -268 1565
-795 -269 1572
-793 -270 1577
-793 -271 1585
-794 -273 1594
-793 -274 1601
-792 -274 1606
-791 -275 1612
-790 -276 1618
-787 -276 1621
-786 -277 1627
-784 -277 1631
-782 -278 1636
-779 -278 1639
-779 -279 1646
-776 -280 1649
-775 -281 1656
0 0 0
0 0 0
0 0 0
0 0 0
0 0 0
0 0 0
0 0 0
0 0 0
0 0 0
0 0 0
0 0 0
0 0 0
0 0 0
0 0 0
0 0 0
0 0 0
0 0 0
0 0 0
0 0 0
0 0 0
0 0 0
0 0 0
0 0 0
0 0 0
0 0 0
-753 -310 1856
0 0 0
0 0 0
0 0 0
0 0 0
0 0 0
0 0 0
0 0 0
0 0 0
0 0 0
0 0 0
0 0 0
0 0 0
0 0 0
0 0 0
0 0 0
0 0 0
0 0 0
0 0 0
0 0 0
0 0 0
0 0 0
0 0 0
0 0 0
0 0 0
0 0 0
0 0 0
0 0 0
0 0 0
0 0 0
0 0 0
0 0 0
0 0 0
0 0 0
0 0 0
0 0 0
0 0 0
0 0 0
0 0 0
0 0 0
0 0 0
0 0 0
-697 -367 2245
-693 -367 2248
-690 -368 2252
-686 -368 2257
-685 -370 2270
-687 -374 2292
0 0 0
0 0 0
-688 -382 2345
-685 -383 2353
-683 -385 2364
-681 -386 2375
-679 -388 2387
-677 -389 2397
-673 -390 2401
-669 -391 2406
-665 -391 2410
-662 -392 2417
-657 -392 2419
-653 -393 2425
-649 -394 2429
-645 -394 2432
-640 -394 2434
-635 -394 2435
-631 -395 2438
-626 -395 2440
-621 -395 2441
-617 -395 2444
-612 -395 2446
-606 -395 2444
-601 -395 2445
-596 -395 2444
-590 -394 2441
-584 -394 2440
-579 -393 2438
-573 -393 2435
-568 -392 2435
-563 -392 2436
-558 -393 2437
-553 -392 2436
-547 -392 2433
-542 -392 2435
-536 -391 2432
-530 -390 2428
-526 -391 2431
-522 -391 2434
-517 -391 2436
-512 -391 2437
-506 -391 2435
-501 -391 2433
-495 -390 2431
-490 -390 2428
-484 -389 2426
-479 -389 2426
-474 -389 2425
-469 -389 2424
-463 -388 2422
-459 -388 2425
-454 -388 2423
-449 -388 2426
-444 -388 2423
-439 -388 2424
-433 -387 2421
-428 -387 2418
-423 -387 2418
-418 -387 2418
-413 -386 2417
-408 -386 2418
-402 -386 2416
-397 -386 2415
-392 -385 2413
-387 -385 2414
-382 -385 2410
-377 -385 2411
-372 -385 2412
-367 -385 2412
-362 -385 2412
-357 -384 2411
-352 -384 2411
-347 -384 2411
-343 -385 2413
-338 -385 2413
-333 -384 2412
-327 -384 2408
-322 -383 2403
-316 -382 2400
-311 -382 2400
-307 -382 2402
-302 -382 2402
-297 -382 2402
-292 -382 2403
-287 -382 2402
-282 -382 2400
-277 -381 2398
-272 -381 2394
-266 -380 2390
-261 -380 2389
-257 -380 2388
-252 -380 2390
-247 -380 2391
-242 -380 2392
-238 -380 2394
-233 -381 2396
-228 -380 2396
-223 -380 2394
-218 -380 2392
-213 -379 2390
-208 -379 2388
-203 -379 2387
-198 -379 2386
-194 -379 2386
-189 -378 2385
-184 -378 2383
-179 -378 2382
-174 -378 2384
-169 -378 2382
-165 -378 2381
-160 -377 2378
-155 -377 2378
-150 -377 2375
-145 -377 2376
-140 -377 2378
-136 -377 2377
-131 -377 2379
-126 -377 2376
-121 -377 2377
-116 -376 2374
-112 -376 2373
-107 -375 2369
-102 -375 2369
-97 -375 2368
-92 -375 2369
-88 -375 2367
-83 -375 2369
-78 -375 2368
-73 -375 2366
-68 -374 2362
-64 -374 2362
-59 -374 2361
-54 -374 2360
-50 -374 2361
-45 -374 2363
-40 -374 2361
-35 -374 2362
-31 -374 2360
-26 -374 2361
-21 -373 2358
-16 -373 2358
-12 -373 2357
-7 -373 2356
-2 -373 2355
2 -373 2354
7 -372 2351
12 -372 2350
17 -372 2349
21 -372 2347
26 -372 2348
31 -372 2349
35 -372 2348
40 -372 2349
45 -372 2349
49 -372 2348
54 -372 2347
59 -372 2348
63 -371 2345
68 -371 2345
73 -371 2344
77 -371 2342
82 -371 2340
87 -371 2341
92 -371 2342
96 -371 2341
101 -371 2340
105 -371 2339
110 -370 2337
115 -370 2336
119 -370 2336
124 -370 2336
129 -370 2336
133 -370 2333
138 -370 2332
143 -370 2333
147 -370 2333
152 -370 2332
157 -370 2332
161 -370 2331
166 -369 2329
170 -369 2329
175 -369 2329
180 -369 2328
184 -369 2327
189 -369 2326
194 -369 2324
198 -369 2323
203 -369 2323
207 -369 2322
212 -369 2323
217 -369 2323
222 -369 2323
226 -369 2321
231 -369 2321
235 -368 2318
240 -368 2316
244 -368 2315
249 -368 2314
253 -368 2314
258 -368 2314
263 -368 2314
267 -367 2311
272 -368 2311
276 -367 2310
281 -367 2309
286 -367 2309
290 -368 2310
295 -368 2309
300 -368 2309
304 -367 2308
309 -367 2306
313 -367 2303
317 -367 2301
322 -366 2300
327 -366 2299
331 -366 2299
336 -366 2298
340 -366 2298
345 -367 2299
350 -366 2296
354 -366 2295
358 -365 2289
362 -364 2283
364 -362 2269
367 -361 2260
371 -360 2254
375 -360 2252
379 -359 2244
381 -356 2230
384 -355 2221
387 -354 2211
390 -353 2204
394 -352 2201
398 -352 2199
402 -352 2198
407 -352 2196
411 -351 2193
414 -350 2187
419 -351 2190
423 -350 2184
427 -350 2183
432 -350 2184
437 -351 2187
441 -350 2183
445 -350 2181
448 -349 2176
452 -349 2173
457 -349 2173
460 -348 2169
466 -349 2172
469 -349 2169
473 -348 2164
0 0 0
0 0 0
0 0 0
0 0 0
0 0 0
0 0 0
0 0 0
0 0 0
0 0 0
0 0 0
0 0 0
0 0 0
0 0 0
0 0 0
283 -183 1130
285 -183 1131
285 -181 1122
285 -179 1109
288 -180 1115
286 -178 1098
288 -177 1094
288 -176 1085
287 -174 1073
290 -174 1075
291 -174 1070
292 -173 1065
293 -172 1062
294 -172 1059
295 -171 1052
296 -170 1049
298 -170 1046
298 -169 1040
300 -169 1037
301 -168 1034
303 -168 1032
304 -168 1029
305 -167 1026
307 -167 1023
308 -166 1021
311 -167 1022
313 -167 1022
316 -167 1024
319 -168 1026
322 -168 1028
325 -168 1030
327 -169 1032
330 -169 1034
333 -170 1036
336 -170 1037
339 -170 1038
341 -170 1039
344 -171 1040
347 -171 1043
350 -172 1045
353 -172 1047
356 -172 1048
358 -172 1048
361 -173 1050
365 -173 1053
367 -174 1054
371 -174 1057
374 -175 1060
378 -175 1063
380 -175 1064
384 -176 1067
387 -177 1070
391 -177 1074
395 -178 1078
398 -178 1079
402 -179 1082
404 -179 1082
407 -180 1084
411 -180 1086
414 -181 1089
418 -181 1092
421 -181 1093
424 -182 1096
428 -182 1098
431 -183 1100
434 -183 1101
437 -183 1102
440 -184 1103
442 -184 1102
445 -184 1104
450 -185 1109
453 -185 1110
458 -186 1115
462 -187 1118
465 -187 1120
467 -187 1118
470 -187 1120
473 -187 1119
476 -188 1120
479 -188 1122
483 -189 1125
487 -189 1127
490 -190 1129
493 -190 1130
497 -190 1132
501 -191 1136
504 -191 1136
508 -192 1138
511 -192 1139
515 -193 1142
517 -193 1141
521 -193 1143
526 -194 1147
529 -194 1148
532 -195 1149
536 -195 1152
541 -196 1155
543 -196 1154
547 -196 1157
550 -196 1156
553 -197 1157
555 -197 1156
559 -197 1157
563 -197 1159
568 -198 1164
571 -199 1164
575 -199 1166
578 -199 1166
582 -200 1168
585 -200 1169
589 -200 1171
595 -202 1177
600 -202 1181
604 -203 1182
608 -203 1184
612 -204 1187
616 -204 1189
621 -205 1193
624 -205 1192
629 -206 1195
632 -206 1196
636 -207 1198
639 -207 1198
642 -207 1197
646 -207 1199
649 -208 1199
651 -207 1197
653 -207 1195
654 -207 1191
655 -206 1187
656 -206 1183
658 -205 1180
659 -205 1176
662 -205 1176
664 -205 1174
666 -205 1172
668 -204 1170
671 -205 1171
673 -205 1169
678 -205 1172
683 -206 1174
688 -206 1177
691 -207 1177
694 -207 1177
699 -208 1180
703 -208 1181
707 -208 1183
713 -209 1188
718 -210 1190
723 -211 1193
728 -211 1196
733 -212 1199
0 0 0
738 -212 1196
743 -213 1198
751 -214 1206
756 -215 1209
760 -215 1210
763 -215 1208
760 -214 1198
759 -213 1192
756 -211 1182
757 -211 1178
758 -210 1174
763 -211 1176
769 -212 1180
776 -213 1186
783 -214 1191
790 -215 1197
803 -218 1211
0 0 0
0 0 0
0 0 0
839 -225 1243
844 -225 1245
848 -225 1245
851 -226 1245
857 -226 1248
862 -227 1249
867 -227 1251
871 -228 1252
879 -229 1258
898 -233 1279
940 -243 1333
0 0 0
0 0 0
0 0 0
0 0 0
0 0 0
0 0 0
0 0 0
0 0 0
0 0 0
0 0 0
0 0 0
0 0 0
0 0 0
-1830 -446 2433
-1823 -446 2435
-1818 -446 2438
-1815 -446 2444
-1811 -447 2450
-1812 -449 2461
-1807 -449 2466
-1808 -450 2477
-1807 -452 2486
-1806 -453 2496
-1805 -454 2505
-1804 -455 2515
-1801 -456 2522
-1796 -456 2526
-1794 -457 2533
-1790 -458 2539
-1787 -458 2545
-1783 -459 2551
-1784 -461 2563
-1786 -463 2578
-1786 -464 2589
-1783 -465 2596
-1781 -466 2604
-1781 -468 2615
-1777 -468 2622
-1776 -470 2632
-1777 -471 2644
-1777 -473 2656
-1773 -474 2662
-1772 -475 2672
-1775 -477 2688
-1769 -477 2691
-1771 -480 2706
-1765 -480 2709
-1762 -480 2716
0 0 0
0 0 0
0 0 0
-2349 -650 3687
-2338 -649 3686
-2322 -647 3678
-2314 -647 3681
-2301 -645 3677
-2289 -644 3674
-2279 -644 3675
-2272 -644 3680
-2256 -642 3671
0 0 0
0 0 0
0 0 0
0 0 0
0 0 0
0 0 0
-732 -214 1230
-727 -213 1227
-722 -213 1225
-720 -213 1226
-714 -212 1223
-712 -212 1225
-712 -213 1230
-714 -214 1239
-724 -218 1262
-740 -224 1296
-754 -229 1328
-761 -232 1346
-765 -234 1360
-769 -236 1373
-772 -238 1386
-774 -240 1396
-777 -241 1407
-779 -243 1417
-782 -245 1430
-783 -246 1439
-784 -248 1448
-786 -249 1458
-788 -251 1469
-790 -252 1480
-790 -254 1488
-792 -255 1498
-793 -256 1507
-793 -258 1515
-794 -259 1524
-794 -260 1532
-795 -261 1541
-794 -262 1548
-794 -263 1555
-793 -264 1561
-794 -266 1570
-793 -266 1576
-792 -267 1583
-792 -269 1591
-792 -270 1599
-791 -270 1604
-790 -271 1610
-788 -272 1616
-786 -272 1620
-785 -273 1626
-784 -274 1631
-781 -274 1635
-779 -275 1639
-778 -276 1644
-775 -276 1647
-773 -276 1651
-771 -277 1655
0 0 0
0 0 0
0 0 0
0 0 0
0 0 0
0 0 0
0 0 0
0 0 0
0 0 0
0 0 0
0 0 0
0 0 0
0 0 0
0 0 0
0 0 0
0 0 0
0 0 0
0 0 0
0 0 0
0 0 0
0 0 0
0 0 0
0 0 0
0 0 0
0 0 0
0 0 0
0 0 0
0 0 0
0 0 0
0 0 0
0 0 0
0 0 0
0 0 0
0 0 0
0 0 0
0 0 0
0 0 0
0 0 0
0 0 0
0 0 0
0 0 0
0 0 0
0 0 0
-1744 -785 4818
-1738 -787 4832
-1733 -790 4849
-1720 -788 4844
-1708 -787 4839
-1698 -787 4841
0 0 0
0 0 0
0 0 0
0 0 0
0 0 0
0 0 0
0 0 0
0 0 0
0 0 0
0 0 0
0 0 0
0 0 0
0 0 0
0 0 0
0 0 0
0 0 0
0 0 0
-696 -361 2240
-692 -362 2243
-687 -362 2244
-685 -363 2252
-683 -364 2264
0 0 0
0 0 0
0 0 0
-687 -377 2344
-684 -378 2350
-683 -380 2366
-682 -382 2378
-680 -384 2392
-677 -385 2399
-673 -385 2404
-669 -386 2407
-665 -387 2413
-662 -388 2420
-658 -388 2423
-654 -388 2427
-650 -389 2434
-645 -389 2433
-640 -389 2434
-635 -389 2435
-631 -390 2439
-625 -389 2438
-620 -389 2439
-616 -390 2443
-611 -390 2443
-606 -390 2444
-601 -390 2445
-596 -390 2446
-590 -389 2443
-584 -389 2440
-579 -388 2439
-574 -388 2438
-568 -387 2435
-562 -387 2434
-557 -387 2435
-552 -387 2434
-547 -387 2436
-542 -387 2434
-535 -386 2428
-531 -386 2430
-525 -386 2429
-521 -386 2433
-516 -386 2432
-512 -387 2439
-507 -387 2440
-501 -386 2435
-496 -385 2432
-490 -385 2429
-484 -384 2425
-479 -384 2425
-474 -384 2424
-469 -383 2423
-463 -383 2421
-459 -383 2425
-453 -383 2422
-448 -383 2421
-443 -383 2421
-438 -382 2420
-432 -382 2416
-428 -382 2418
-423 -382 2419
-417 -381 2417
-413 -382 2418
-407 -381 2417
-402 -381 2417
-397 -381 2415
-392 -381 2414
-387 -380 2414
-381 -380 2409
-377 -380 2413
-372 -380 2411
-367 -380 2413
-362 -380 2413
-358 -380 2415
-352 -380 2412
-347 -379 2411
-342 -379 2411
-337 -379 2412
-332 -379 2411
-327 -378 2407
-322 -378 2404
-316 -378 2402
-311 -377 2400
-307 -377 2401
-302 -378 2403
-297 -377 2403
-292 -377 2403
-287 -378 2404
-282 -377 2401
-277 -376 2398
-272 -376 2396
-266 -375 2391
-262 -375 2390
-257 -375 2391
-252 -375 2392
-247 -375 2393
-243 -375 2394
-238 -375 2394
-233 -375 2395
-228 -375 2395
-223 -375 2393
-218 -374 2389
-213 -374 2389
-208 -374 2387
-203 -374 2388
-198 -374 2386
-194 -374 2387
-189 -374 2387
-184 -373 2385
-179 -373 2384
-174 -373 2385
-170 -373 2385
-165 -373 2384
-160 -373 2381
-155 -373 2381
-150 -372 2377
-145 -372 2378
-141 -372 2380
-136 -372 2379
-131 -372 2379
-126 -372 2381
-121 -372 2379
-116 -371 2375
-112 -372 2377
-107 -371 2374
-102 -371 2373
-97 -371 2371
-92 -371 2371
-88 -371 2370
-83 -371 2371
-78 -370 2369
-73 -370 2366
-68 -370 2364
-64 -369 2362
-59 -369 2362
-54 -369 2362
-50 -369 2362
-45 -370 2365
-40 -369 2363
-35 -369 2362
-31 -369 2362
-26 -369 2362
-21 -369 2358
-16 -369 2359
-12 -369 2359
-7 -368 2357
-2 -368 2357
2 -368 2356
7 -368 2353
12 -368 2352
17 -367 2350
21 -367 2348
26 -367 2347
31 -367 2348
35 -367 2348
40 -367 2349
45 -367 2350
49 -367 2349
54 -367 2349
59 -368 2351
63 -367 2347
68 -367 2346
73 -366 2344
77 -366 2341
82 -366 2340
87 -366 2342
91 -366 2342
96 -366 2341
101 -366 2339
105 -365 2337
110 -365 2336
115 -365 2335
119 -365 2336
124 -366 2337
129 -365 2336
133 -365 2334
138 -365 2334
143 -365 2333
147 -365 2333
152 -365 2333
157 -365 2333
161 -365 2333
166 -365 2332
171 -365 2331
175 -365 2330
180 -365 2329
184 -365 2328
189 -364 2326
193 -364 2323
198 -364 2324
203 -364 2323
207 -364 2322
212 -364 2324
217 -364 2323
221 -364 2322
226 -364 2322
231 -364 2321
235 -364 2319
240 -364 2318
244 -364 2318
249 -363 2317
254 -364 2317
258 -364 2317
263 -364 2318
268 -364 2316
272 -363 2315
277 -363 2313
281 -363 2312
286 -363 2312
291 -363 2312
295 -363 2310
300 -363 2310
304 -363 2309
309 -363 2306
313 -362 2303
318 -362 2303
322 -362 2301
327 -362 2300
331 -362 2300
336 -362 2300
341 -362 2300
345 -362 2299
350 -362 2297
354 -362 2296
358 -361 2289
362 -360 2284
365 -358 2273
368 -357 2263
371 -356 2256
375 -355 2254
379 -355 2249
382 -353 2238
386 -352 2232
388 -350 2220
392 -350 2215
395 -349 2209
399 -348 2206
404 -349 2207
408 -348 2204
412 -348 2202
416 -348 2199
420 -347 2196
424 -347 2192
428 -346 2189
433 -347 2192
438 -348 2196
443 -348 2195
447 -347 2193
452 -348 2194
456 -348 2193
461 -348 2192
465 -347 2190
470 -348 2193
473 -347 2188
477 -347 2183
480 -345 2175
483 -345 2169
0 0 0
0 0 0
0 0 0
0 0 0
486 -331 2082
0 0 0
0 0 0
0 0 0
0 0 0
0 0 0
0 0 0
0 0 0
0 0 0
0 0 0
0 0 0
0 0 0
0 0 0
0 0 0
0 0 0
0 0 0
0 0 0
301 -179 1118
298 -176 1098
300 -176 1097
302 -175 1094
300 -173 1080
301 -172 1073
301 -171 1067
302 -171 1063
303 -170 1057
304 -169 1051
304 -168 1045
305 -167 1042
307 -167 1039
307 -166 1032
309 -166 1031
310 -165 1028
313 -166 1028
315 -165 1027
318 -166 1030
321 -167 1034
324 -167 1036
328 -168 1040
331 -168 1042
333 -168 1043
336 -169 1046
339 -169 1047
342 -170 1049
345 -170 1051
348 -171 1054
351 -171 1056
355 -172 1059
357 -172 1060
360 -172 1062
363 -172 1063
366 -173 1065
369 -173 1067
372 -174 1069
376 -174 1072
379 -175 1073
382 -175 1075
385 -175 1077
388 -176 1080
393 -177 1085
396 -177 1088
400 -178 1091
402 -178 1091
405 -178 1091
407 -178 1091
410 -179 1092
413 -179 1093
417 -180 1097
420 -180 1099
424 -180 1101
427 -181 1102
430 -181 1103
433 -181 1106
436 -182 1106
439 -182 1107
441 -182 1107
444 -182 1107
448 -183 1110
452 -183 1114
456 -184 1118
461 -185 1122
464 -185 1124
467 -186 1124
470 -186 1125
473 -186 1126
475 -186 1125
478 -186 1126
482 -187 1130
486 -187 1132
489 -188 1132
492 -188 1133
495 -188 1135
498 -188 1135
503 -189 1139
507 -190 1142
510 -190 1144
514 -191 1146
517 -191 1147
520 -191 1146
523 -191 1148
527 -192 1151
530 -192 1151
533 -192 1151
537 -193 1153
542 -194 1158
544 -194 1156
549 -194 1160
551 -194 1160
555 -195 1161
556 -194 1158
563 -196 1165
564 -196 1163
569 -196 1167
573 -197 1168
575 -197 1167
578 -197 1167
582 -197 1169
586 -198 1171
591 -199 1176
596 -199 1179
601 -200 1183
604 -200 1183
608 -201 1185
613 -201 1188
616 -202 1189
621 -203 1193
625 -203 1194
629 -204 1197
633 -204 1197
637 -204 1199
640 -205 1200
642 -204 1198
647 -205 1200
650 -205 1200
652 -205 1199
655 -205 1199
656 -205 1194
657 -204 1190
658 -203 1186
658 -203 1181
658 -202 1176
661 -202 1176
663 -202 1174
666 -202 1172
668 -202 1171
672 -202 1172
675 -202 1172
682 -204 1179
685 -204 1178
690 -204 1181
692 -204 1179
694 -204 1177
698 -205 1179
703 -205 1181
708 -206 1184
713 -207 1187
718 -207 1190
723 -208 1193
727 -208 1194
731 -209 1195
0 0 0
736 -209 1193
739 -209 1192
747 -210 1200
0 0 0
0 0 0
0 0 0
0 0 0
758 -210 1190
755 -208 1180
753 -207 1172
756 -207 1172
760 -207 1172
766 -208 1176
773 -209 1182
782 -211 1190
0 0 0
0 0 0
0 0 0
0 0 0
0 0 0
839 -222 1243
843 -222 1244
846 -222 1243
850 -223 1244
855 -223 1245
860 -224 1247
864 -224 1248
870 -225 1250
878 -226 1257
902 -232 1286
945 -242 1341
983 -251 1389
1005 -255 1414
1012 -256 1417
0 0 0
0 0 0
0 0 0
0 0 0
0 0 0
0 0 0
0 0 0
0 0 0
0 0 0
-1825 -438 2417
-1819 -438 2420
-1817 -439 2427
-1814 -439 2434
-1813 -440 2442
-1808 -440 2446
-1807 -442 2455
-1805 -443 2463
-1807 -444 2476
-1805 -445 2484
-1806 -447 2497
-1804 -448 2504
-1803 -449 2514
-1801 -450 2522
-1797 -451 2528
-1794 -451 2534
-1790 -452 2539
-1788 -453 2547
-1783 -453 2552
-1785 -455 2565
-1786 -457 2578
-1786 -458 2590
-1783 -459 2596
-1782 -460 2606
-1778 -461 2612
-1776 -462 2621
-1779 -464 2637
-1780 -466 2649
-1782 -468 2665
0 0 0
-1777 -470 2680
-1776 -471 2690
-1769 -471 2692
-1772 -474 2709
0 0 0
0 0 0
0 0 0
0 0 0
0 0 0
-2343 -640 3679
-2334 -639 3681
-2320 -638 3676
-2312 -638 3679
-2300 -637 3676
-2287 -636 3672
-2276 -635 3672
-2269 -635 3677
-2253 -633 3667
0 0 0
0 0 0
0 0 0
0 0 0
0 0 0
0 0 0
0 0 0
0 0 0
-725 -211 1230
-721 -210 1229
-714 -209 1223
-711 -209 1223
-709 -209 1226
-710 -210 1233
-713 -212 1243
-729 -218 1278
-747 -224 1316
-757 -228 1339
-762 -230 1354
-766 -232 1368
-769 -234 1380
-771 -235 1390
-773 -237 1401
-776 -239 1412
-777 -240 1422
-779 -242 1432
-782 -244 1444
-784 -245 1455
-784 -246 1463
-786 -248 1473
-788 -250 1484
-789 -251 1493
-790 -252 1503
-791 -254 1512
-792 -255 1522
-793 -256 1530
-793 -258 1539
-794 -259 1547
-793 -260 1553
-792 -260 1559
-792 -262 1567
-791 -262 1573
-791 -263 1580
-791 -265 1588
-790 -266 1596
-789 -266 1602
-789 -267 1609
-788 -268 1616
-787 -269 1621
-786 -270 1627
-784 -271 1632
-782 -271 1636
-780 -271 1640
-778 -272 1645
-775 -272 1648
-773 -273 1652
-771 -273 1656
-771 -275 1665
0 0 0
0 0 0
0 0 0
0 0 0
0 0 0
0 0 0
0 0 0
0 0 0
0 0 0
0 0 0
0 0 0
0 0 0
0 0 0
0 0 0
0 0 0
0 0 0
0 0 0
0 0 0
0 0 0
0 0 0
0 0 0
0 0 0
0 0 0
0 0 0
0 0 0
0 0 0
0 0 0
0 0 0
0 0 0
0 0 0
0 0 0
0 0 0
0 0 0
0 0 0
0 0 0
0 0 0
0 0 0
0 0 0
0 0 0
0 0 0
0 0 0
0 0 0
0 0 0
0 0 0
0 0 0
0 0 0
0 0 0
0 0 0
0 0 0
0 0 0
0 0 0
0 0 0
0 0 0
0 0 0
0 0 0
0 0 0
0 0 0
0 0 0
0 0 0
0 0 0
0 0 0
0 0 0
0 0 0
0 0 0
-698 -355 2232
-694 -356 2236
-690 -356 2238
-686 -356 2241
-684 -357 2249
-683 -359 2262
-685 -363 2286
-690 -368 2321
-689 -371 2335
-688 -373 2349
-685 -373 2354
-684 -376 2370
-682 -377 2381
-681 -379 2394
-677 -380 2400
-673 -380 2404
-669 -381 2408
-666 -382 2414
-662 -383 2420
-658 -383 2424
-654 -384 2429
-650 -384 2433
-645 -384 2433
-639 -384 2432
-635 -384 2436
-631 -385 2439
-626 -385 2440
-621 -385 2443
-616 -385 2443
-611 -385 2443
-605 -384 2442
-601 -385 2444
-596 -385 2445
-590 -384 2444
-584 -384 2441
-579 -383 2440
-573 -383 2438
-568 -382 2435
-562 -382 2433
-557 -382 2435
-552 -382 2434
-547 -382 2434
-542 -382 2435
-536 -381 2432
-531 -381 2432
-525 -380 2429
-521 -381 2434
-517 -382 2437
-512 -382 2440
-507 -381 2437
-501 -381 2436
-495 -380 2431
-489 -379 2427
-484 -379 2425
-479 -379 2426
-474 -379 2424
-469 -379 2426
-464 -379 2425
-459 -378 2424
-454 -378 2424
-449 -379 2427
-444 -378 2425
-439 -378 2424
-433 -378 2423
-428 -377 2420
-423 -377 2420
-418 -377 2420
-412 -376 2417
-408 -377 2418
-402 -376 2415
-397 -376 2416
-392 -376 2415
-387 -376 2416
-382 -375 2413
-377 -376 2415
-372 -375 2414
-367 -375 2415
-362 -375 2414
-358 -375 2415
-352 -375 2414
-347 -375 2414
-343 -375 2417
-338 -375 2413
-332 -374 2412
-327 -373 2405
-322 -373 2405
-316 -373 2402
-311 -372 2401
-307 -373 2404
-302 -373 2404
-297 -373 2403
-292 -373 2404
-287 -372 2403
-282 -372 2400
-277 -371 2396
-271 -371 2393
-267 -371 2392
-262 -371 2393
-257 -371 2394
-252 -371 2395
-247 -371 2395
-243 -371 2394
-238 -371 2396
-233 -371 2396
-228 -371 2397
-223 -370 2394
-218 -370 2394
-213 -370 2392
-208 -370 2390
-204 -370 2391
-199 -369 2389
-194 -369 2387
-189 -369 2386
-184 -369 2385
-179 -368 2384
-174 -369 2385
-170 -369 2386
-165 -368 2384
-160 -368 2383
-155 -368 2383
-150 -367 2379
-145 -367 2379
-141 -368 2381
-136 -367 2379
-131 -368 2380
-126 -367 2378
-121 -367 2379
-116 -366 2374
-112 -367 2377
-107 -366 2372
-102 -366 2373
-97 -366 2371
-93 -366 2373
-88 -366 2373
-83 -367 2375
-78 -366 2371
-73 -366 2370
-69 -365 2368
-64 -365 2366
-59 -365 2365
-54 -365 2366
-50 -365 2365
-45 -365 2365
-40 -365 2366
-35 -365 2365
-31 -365 2365
-26 -365 2364
-21 -365 2363
-16 -364 2362
-12 -364 2360
-7 -364 2359
-2 -364 2358
2 -364 2357
7 -363 2355
12 -363 2354
17 -363 2352
21 -363 2350
26 -362 2349
31 -362 2349
35 -362 2349
40 -363 2350
45 -363 2351
49 -363 2350
54 -362 2348
59 -362 2348
63 -362 2347
68 -362 2344
73 -362 2345
77 -362 2344
82 -361 2342
87 -362 2343
92 -362 2343
96 -361 2342
101 -361 2340
105 -361 2338
110 -361 2338
115 -361 2338
119 -361 2337
124 -361 2338
129 -361 2337
133 -360 2334
138 -360 2333
143 -360 2333
147 -361 2334
152 -361 2334
157 -361 2334
161 -361 2334
166 -360 2332
171 -360 2331
175 -360 2331
180 -360 2330
184 -360 2328
189 -360 2326
194 -359 2325
198 -360 2325
203 -360 2325
207 -359 2324
212 -359 2324
217 -360 2324
222 -360 2324
226 -360 2324
231 -359 2323
235 -359 2319
240 -359 2319
244 -359 2318
249 -359 2316
254 -359 2317
258 -359 2318
263 -359 2318
268 -359 2317
272 -359 2317
277 -359 2314
281 -359 2314
286 -359 2313
291 -359 2314
295 -359 2313
300 -359 2313
305 -359 2311
309 -358 2309
313 -358 2306
318 -358 2304
322 -358 2303
327 -357 2302
331 -357 2301
336 -357 2301
341 -358 2301
345 -357 2300
350 -357 2299
355 -357 2299
358 -357 2293
362 -356 2286
365 -354 2276
368 -353 2266
372 -352 2259
376 -351 2257
380 -351 2253
383 -349 2243
387 -349 2240
389 -347 2227
393 -346 2221
396 -345 2215
401 -345 2214
404 -345 2209
409 -345 2210
413 -345 2209
418 -344 2207
421 -344 2201
425 -343 2197
429 -343 2195
434 -343 2196
439 -344 2200
444 -344 2202
449 -344 2201
453 -344 2201
458 -345 2204
463 -345 2202
466 -344 2198
471 -344 2198
474 -343 2193
478 -343 2189
482 -342 2184
485 -341 2178
487 -340 2165
490 -339 2159
492 -337 2150
493 -335 2135
495 -333 2123
497 -332 2114
498 -329 2097
496 -326 2073
498 -324 2060
496 -320 2035
496 -317 2017
495 -314 1996
0 0 0
0 0 0
0 0 0
0 0 0
0 0 0
0 0 0
0 0 0
0 0 0
0 0 0
0 0 0
0 0 0
0 0 0
0 0 0
0 0 0
0 0 0
0 0 0
0 0 0
314 -173 1094
313 -172 1084
316 -172 1085
315 -171 1075
314 -169 1065
314 -167 1054
315 -167 1052
0 0 0
319 -167 1050
321 -166 1047
325 -168 1055
330 -169 1062
331 -169 1059
334 -169 1062
337 -169 1062
340 -169 1063
342 -170 1065
345 -170 1066
348 -170 1068
351 -171 1070
354 -171 1072
357 -171 1072
360 -172 1075
363 -172 1076
365 -172 1075
368 -172 1076
370 -173 1077
373 -173 1078
376 -173 1079
379 -173 1080
381 -174 1081
385 -174 1083
387 -174 1084
391 -175 1088
395 -175 1091
398 -176 1093
401 -176 1095
404 -177 1096
407 -177 1097
409 -177 1096
412 -177 1098
415 -177 1098
419 -178 1101
422 -178 1104
425 -179 1105
428 -179 1107
432 -180 1110
436 -180 1112
439 -181 1114
442 -181 1115
444 -181 1115
446 -181 1113
449 -181 1114
453 -181 1116
457 -182 1120
461 -183 1124
465 -183 1126
469 -184 1129
471 -184 1128
473 -184 1128
476 -184 1128
480 -185 1130
483 -185 1131
487 -185 1134
490 -186 1135
493 -186 1135
496 -186 1137
499 -186 1138
503 -187 1141
507 -187 1142
510 -188 1144
514 -188 1146
518 -189 1148
520 -189 1148
525 -189 1151
529 -190 1154
530 -190 1151
534 -190 1154
538 -191 1156
541 -191 1157
545 -192 1159
549 -192 1162
552 -192 1161
556 -193 1164
558 -193 1162
562 -193 1164
565 -193 1165
570 -194 1168
575 -195 1173
577 -195 1172
580 -195 1172
585 -196 1175
588 -196 1175
593 -197 1179
597 -197 1181
602 -198 1185
605 -198 1185
609 -199 1187
612 -199 1188
616 -199 1189
619 -199 1190
625 -200 1195
630 -201 1198
632 -201 1197
638 -202 1201
642 -202 1203
644 -202 1201
648 -203 1203
652 -203 1204
654 -203 1203
656 -203 1200
657 -202 1197
658 -202 1192
658 -201 1187
658 -200 1181
659 -200 1177
661 -199 1175
663 -199 1174
666 -199 1173
668 -199 1171
672 -200 1173
676 -200 1175
681 -201 1177
685 -201 1179
688 -201 1179
691 -201 1178
693 -201 1176
697 -202 1178
703 -203 1182
708 -203 1185
711 -204 1185
718 -205 1190
723 -205 1194
726 -205 1193
0 0 0
736 -207 1198
736 -206 1193
0 0 0
749 -208 1203
755 -209 1207
761 -210 1211
764 -210 1211
0 0 0
758 -207 1190
752 -205 1176
750 -203 1167
755 -204 1170
758 -204 1169
764 -205 1174
774 -207 1183
783 -209 1192
789 -209 1196
0 0 0
0 0 0
0 0 0
0 0 0
834 -218 1236
841 -219 1241
845 -219 1242
850 -220 1244
855 -220 1245
860 -221 1248
865 -221 1250
872 -222 1254
882 -224 1263
911 -231 1299
951 -240 1350
980 -247 1385
1000 -251 1407
1005 -251 1408
1009 -251 1407
1011 -251 1404
1015 -251 1404
1014 -250 1397
0 0 0
-1833 -429 2388
-1829 -429 2393
-1823 -429 2395
-1821 -430 2402
-1815 -430 2405
-1813 -431 2412
-1811 -431 2420
-1812 -433 2431
-1812 -434 2442
-1808 -435 2447
-1810 -437 2460
-1806 -437 2465
-1808 -439 2478
-1807 -440 2488
-1808 -442 2500
-1805 -443 2507
-1805 -444 2517
-1801 -444 2523
-1795 -444 2525
-1791 -445 2531
-1788 -445 2537
-1784 -446 2542
-1780 -446 2548
-1783 -449 2563
-1783 -450 2574
-1784 -452 2587
-1782 -453 2595
-1780 -454 2604
-1776 -454 2610
-1772 -455 2616
0 0 0
0 0 0
0 0 0
0 0 0
0 0 0
0 0 0
-1766 -464 2688
-1771 -467 2707
-1763 -467 2707
0 0 0
0 0 0
0 0 0
0 0 0
0 0 0
-2327 -629 3671
-2315 -628 3668
-2306 -628 3671
-2293 -627 3667
-2281 -626 3663
0 0 0
0 0 0
0 0 0
0 0 0
0 0 0
0 0 0
0 0 0
0 0 0
0 0 0
0 0 0
-729 -208 1232
-725 -208 1231
-720 -207 1228
-715 -206 1224
-711 -206 1223
-709 -206 1226
-708 -207 1230
-709 -208 1237
-718 -211 1259
-739 -218 1301
-750 -223 1328
-759 -226 1349
-763 -228 1363
-766 -230 1375
-768 -232 1386
-771 -233 1397
-773 -235 1408
-775 -237 1419
-777 -238 1429
-780 -240 1441
-782 -241 1451
-783 -243 1461
-785 -244 1472
-786 -246 1481
-787 -247 1490
-788 -248 1499
-789 -250 1509
-791 -251 1519
-791 -253 1528
-792 -254 1536
-791 -255 1543
-791 -256 1549
-790 -256 1556
-790 -257 1563
-789 -258 1570
-789 -260 1578
-789 -261 1586
-789 -262 1593
-788 -263 1600
-788 -264 1608
-788 -265 1615
-786 -265 1621
-785 -266 1626
-783 -267 1631
-781 -267 1635
-779 -268 1639
-777 -268 1643
-775 -269 1647
-772 -269 1651
-769 -269 1653
-767 -270 1657
0 0 0
0 0 0
0 0 0
0 0 0
0 0 0
0 0 0
0 0 0
0 0 0
0 0 0
0 0 0
0 0 0
0 0 0
0 0 0
0 0 0
0 0 0
0 0 0
0 0 0
0 0 0
0 0 0
0 0 0
0 0 0
0 0 0
0 0 0
0 0 0
0 0 0
0 0 0
0 0 0
0 0 0
0 0 0
0 0 0
0 0 0
0 0 0
0 0 0
0 0 0
0 0 0
0 0 0
0 0 0
0 0 0
0 0 0
0 0 0
0 0 0
0 0 0
0 0 0
0 0 0
0 0 0
0 0 0
0 0 0
0 0 0
0 0 0
0 0 0
0 0 0
0 0 0
0 0 0
0 0 0
0 0 0
0 0 0
0 0 0
0 0 0
0 0 0
0 0 0
0 0 0
0 0 0
0 0 0
0 0 0
0 0 0
-696 -352 2242
-691 -352 2241
-687 -352 2245
-684 -353 2252
-683 -355 2263
-685 -358 2286
-691 -364 2323
-692 -367 2343
-689 -368 2351
-686 -369 2358
-684 -371 2369
-682 -372 2379
-680 -374 2393
-677 -375 2401
-673 -376 2405
-670 -376 2410
-666 -377 2416
-662 -377 2420
-659 -378 2427
-654 -379 2430
-649 -379 2431
-644 -379 2431
-640 -379 2435
-635 -379 2436
-631 -380 2440
-626 -380 2442
-621 -380 2443
-616 -380 2444
-611 -380 2443
-606 -380 2445
-601 -379 2444
-595 -379 2444
-590 -379 2443
-585 -379 2444
-579 -379 2441
-574 -378 2441
-569 -378 2440
-563 -378 2437
-558 -378 2438
-553 -378 2439
-548 -377 2439
-542 -377 2436
-537 -376 2434
-530 -375 2428
-525 -375 2428
-520 -376 2430
-516 -376 2434
-512 -376 2437
-507 -377 2439
-501 -376 2434
-495 -375 2432
-490 -375 2428
-484 -374 2426
-479 -374 2426
-474 -374 2426
-469 -374 2426
-464 -374 2426
-459 -374 2426
-454 -373 2425
-448 -373 2423
-443 -373 2423
-438 -373 2421
-433 -373 2422
-428 -373 2423
-423 -372 2419
-418 -372 2420
-413 -372 2421
-407 -371 2416
-402 -371 2417
-397 -371 2417
-392 -371 2415
-387 -371 2417
-382 -371 2415
-377 -371 2416
-372 -370 2414
-368 -371 2418
-362 -370 2413
-358 -371 2417
-353 -370 2415
-348 -370 2416
-343 -370 2415
-337 -369 2411
-332 -369 2410
-327 -369 2409
-322 -369 2407
-317 -368 2406
-312 -368 2407
-307 -368 2407
-302 -368 2406
-297 -368 2404
-292 -368 2405
-287 -368 2403
-282 -367 2398
-277 -367 2398
-272 -366 2396
-267 -366 2395
-262 -366 2396
-257 -366 2398
-252 -366 2396
-248 -366 2397
-243 -366 2395
-238 -366 2397
-233 -366 2394
-228 -366 2394
-223 -365 2393
-218 -365 2392
-213 -365 2391
-209 -365 2392
-204 -365 2391
-199 -365 2390
-194 -365 2390
-189 -364 2388
-184 -364 2385
-179 -364 2384
-174 -364 2385
-170 -364 2386
-165 -363 2384
-160 -363 2384
-155 -364 2385
-150 -363 2383
-145 -363 2381
-141 -363 2382
-136 -363 2381
-131 -363 2380
-126 -362 2379
-121 -362 2379
-116 -362 2376
-112 -362 2378
-107 -361 2373
-102 -362 2374
-97 -362 2374
-93 -362 2376
-88 -362 2374
-83 -362 2376
-78 -362 2374
-73 -361 2372
-69 -361 2370
-64 -361 2370
-59 -361 2369
-54 -361 2370
-50 -360 2366
-45 -361 2368
-40 -360 2367
-35 -360 2366
-31 -360 2365
-26 -360 2365
-21 -360 2364
-16 -360 2362
-12 -359 2361
-7 -360 2362
-2 -359 2360
2 -359 2358
7 -359 2357
12 -359 2356
17 -358 2354
21 -358 2352
26 -358 2351
31 -358 2350
35 -358 2352
40 -358 2351
45 -358 2352
49 -358 2350
54 -358 2351
59 -358 2349
63 -357 2347
68 -357 2345
73 -357 2344
77 -357 2342
82 -357 2343
87 -357 2342
92 -357 2343
96 -357 2344
101 -357 2343
105 -357 2341
110 -357 2341
115 -357 2341
119 -356 2339
124 -356 2339
129 -356 2337
133 -356 2336
138 -356 2335
143 -356 2337
147 -356 2336
152 -356 2336
157 -356 2335
161 -356 2335
166 -356 2333
171 -356 2332
175 -356 2332
180 -356 2331
184 -355 2329
189 -355 2328
193 -355 2325
198 -355 2325
203 -355 2324
207 -355 2323
212 -355 2324
217 -355 2324
221 -355 2324
226 -355 2323
231 -355 2324
235 -355 2322
240 -355 2321
245 -355 2321
249 -354 2319
254 -354 2319
259 -355 2320
263 -355 2320
268 -355 2319
273 -355 2319
277 -354 2316
282 -354 2315
286 -354 2315
291 -354 2316
295 -354 2314
300 -354 2314
305 -354 2311
309 -354 2310
313 -353 2307
318 -353 2306
322 -353 2304
327 -353 2304
332 -353 2303
336 -353 2303
341 -353 2302
346 -353 2302
350 -353 2301
355 -353 2300
358 -352 2294
362 -351 2289
365 -350 2277
368 -348 2267
372 -347 2261
376 -347 2259
380 -346 2255
384 -345 2248
388 -346 2248
391 -344 2236
394 -343 2229
397 -342 2222
401 -341 2219
405 -341 2215
410 -341 2215
414 -340 2211
418 -340 2210
422 -340 2206
426 -339 2203
430 -339 2200
435 -340 2202
440 -340 2204
445 -340 2207
450 -341 2210
454 -340 2206
459 -341 2208
464 -341 2208
468 -341 2206
472 -341 2205
475 -339 2196
479 -339 2194
482 -338 2185
485 -337 2180
488 -336 2170
490 -335 2162
493 -334 2155
496 -332 2146
497 -331 2134
500 -330 2127
501 -328 2113
502 -325 2097
504 -324 2086
504 -321 2070
506 -320 2059
506 -317 2042
509 -316 2037
511 -315 2027
513 -314 2018
516 -313 2013
516 -310 1995
517 -308 1982
519 -307 1974
520 -306 1962
0 0 0
0 0 0
0 0 0
0 0 0
0 0 0
0 0 0
0 0 0
0 0 0
0 0 0
0 0 0
0 0 0
0 0 0
0 0 0
0 0 0
0 0 0
0 0 0
0 0 0
0 0 0
0 0 0
0 0 0
0 0 0
0 0 0
343 -171 1088
343 -170 1082
344 -170 1078
346 -169 1076
348 -169 1074
350 -169 1075
353 -170 1076
356 -170 1077
359 -170 1079
362 -171 1081
365 -171 1082
367 -171 1082
370 -171 1082
372 -171 1083
375 -172 1085
378 -172 1085
381 -172 1086
383 -172 1086
387 -173 1089
389 -173 1090
392 -173 1091
396 -174 1095
400 -175 1099
403 -175 1100
406 -175 1101
409 -175 1102
411 -175 1102
414 -175 1102
416 -176 1102
419 -176 1103
423 -176 1105
426 -177 1107
429 -177 1108
432 -177 1110
436 -178 1113
439 -178 1115
443 -179 1118
446 -179 1118
448 -179 1118
451 -179 1119
455 -180 1121
458 -180 1123
462 -181 1126
466 -181 1129
469 -182 1131
472 -182 1131
475 -182 1132
478 -182 1133
481 -183 1133
484 -183 1133
487 -183 1134
491 -184 1137
493 -184 1137
496 -184 1137
501 -185 1142
505 -185 1144
507 -185 1143
511 -186 1145
515 -186 1149
519 -187 1151
522 -187 1152
527 -188 1156
529 -188 1156
532 -188 1156
535 -188 1155
538 -188 1157
543 -189 1160
546 -189 1161
551 -190 1165
553 -190 1164
556 -190 1165
559 -190 1164
562 -191 1165
566 -191 1167
572 -192 1173
575 -193 1174
579 -193 1175
582 -193 1175
586 -193 1177
589 -194 1178
594 -195 1182
598 -195 1183
603 -196 1187
606 -196 1187
610 -196 1189
613 -196 1189
616 -197 1189
620 -197 1192
624 -197 1193
628 -198 1195
632 -198 1196
637 -199 1200
641 -200 1202
644 -200 1202
649 -200 1205
652 -201 1205
655 -201 1205
656 -200 1201
658 -200 1199
659 -199 1194
657 -198 1186
658 -198 1182
659 -197 1178
661 -197 1176
664 -197 1175
666 -197 1173
669 -197 1173
674 -198 1177
678 -198 1178
684 -199 1182
686 -199 1181
690 -199 1182
691 -199 1179
694 -199 1178
698 -199 1180
703 -200 1182
707 -201 1184
711 -201 1184
716 -202 1188
723 -203 1193
726 -203 1193
730 -203 1194
0 0 0
0 0 0
0 0 0
744 -204 1196
0 0 0
759 -207 1208
763 -207 1209
761 -206 1201
756 -204 1188
754 -202 1179
753 -201 1172
756 -202 1172
759 -202 1172
766 -203 1177
773 -204 1183
781 -205 1190
0 0 0
804 -210 1214
0 0 0
0 0 0
0 0 0
0 0 0
843 -216 1244
848 -217 1246
851 -217 1246
857 -218 1249
862 -218 1250
867 -219 1253
874 -220 1257
885 -222 1268
915 -229 1305
952 -237 1352
980 -244 1386
997 -247 1403
1003 -248 1406
1005 -247 1403
1009 -247 1402
1011 -247 1399
1015 -247 1398
-1831 -421 2376
-1828 -422 2381
-1824 -422 2387
-1820 -423 2391
-1818 -423 2399
-1814 -424 2404
-1814 -425 2414
-1814 -426 2424
-1813 -428 2433
-1811 -428 2441
-1810 -430 2451
-1809 -431 2460
-1807 -432 2467
-1810 -434 2482
-1809 -435 2491
-1809 -436 2502
-1805 -437 2508
-1806 -438 2519
-1801 -439 2524
-1796 -439 2528
-1796 -440 2538
-1794 -441 2546
-1785 -440 2545
-1784 -442 2555
-1787 -444 2570
-1783 -444 2575
-1784 -446 2588
-1785 -448 2601
0 0 0
0 0 0
0 0 0
0 0 0
0 0 0
0 0 0
0 0 0
0 0 0
0 0 0
0 0 0
0 0 0
-1764 -461 2710
0 0 0
0 0 0
0 0 0
0 0 0
0 0 0
0 0 0
0 0 0
0 0 0
0 0 0
0 0 0
0 0 0
0 0 0
0 0 0
0 0 0
-1790 -493 2942
-1773 -491 2928
0 0 0
0 0 0
0 0 0
0 0 0
0 0 0
-722 -204 1226
-720 -204 1227
-714 -204 1224
-710 -203 1222
-708 -203 1224
-707 -204 1228
-707 -205 1234
-709 -206 1244
-720 -210 1268
-742 -217 1314
-755 -222 1342
-759 -224 1357
-762 -226 1369
-765 -228 1381
-768 -229 1392
-770 -231 1402
-773 -233 1414
-775 -234 1426
-778 -236 1437
-780 -238 1448
-782 -239 1459
-783 -241 1469
-784 -242 1478
-785 -243 1486
-786 -245 1496
-788 -246 1506
-788 -247 1514
-789 -248 1523
-789 -250 1531
-789 -251 1539
-789 -252 1546
-789 -253 1554
-789 -254 1561
-788 -255 1568
-788 -256 1575
-788 -257 1583
-788 -258 1592
-788 -259 1599
-787 -260 1606
-786 -261 1613
-786 -262 1620
-784 -262 1625
-783 -263 1630
-781 -264 1635
-780 -264 1641
-777 -265 1644
-775 -265 1649
-773 -266 1652
-770 -266 1655
-766 -266 1656
-761 -265 1653
0 0 0
0 0 0
0 0 0
0 0 0
0 0 0
0 0 0
0 0 0
0 0 0
0 0 0
0 0 0
0 0 0
0 0 0
0 0 0
0 0 0
0 0 0
0 0 0
0 0 0
0 0 0
0 0 0
0 0 0
0 0 0
0 0 0
0 0 0
0 0 0
0 0 0
0 0 0
0 0 0
0 0 0
0 0 0
0 0 0
0 0 0
0 0 0
0 0 0
0 0 0
0 0 0
0 0 0
0 0 0
0 0 0
0 0 0
0 0 0
0 0 0
0 0 0
0 0 0
0 0 0
0 0 0
-1967 -872 5577
-1953 -871 5574
-1938 -869 5566
-1916 -865 5540
0 0 0
0 0 0
0 0 0
0 0 0
0 0 0
0 0 0
0 0 0
0 0 0
0 0 0
0 0 0
0 0 0
0 0 0
0 0 0
0 0 0
0 0 0
-696 -347 2242
-690 -347 2239
-686 -347 2241
-683 -348 2248
-683 -350 2263
-684 -353 2285
-692 -360 2328
-694 -363 2351
-693 -365 2365
-690 -366 2372
-687 -367 2379
-683 -368 2386
-682 -370 2398
-678 -370 2402
-674 -371 2406
-669 -371 2410
-665 -372 2414
-662 -372 2419
-659 -374 2428
-654 -374 2430
-649 -374 2430
-644 -374 2431
-639 -374 2433
-635 -374 2437
-631 -375 2440
-626 -375 2444
-621 -375 2444
-616 -375 2445
-611 -375 2444
-605 -374 2443
-600 -374 2442
-595 -374 2442
-590 -374 2443
-584 -374 2442
-579 -374 2442
-573 -373 2439
-568 -373 2437
-563 -372 2437
-558 -372 2437
-552 -372 2437
-548 -372 2438
-542 -372 2437
-537 -372 2435
-531 -371 2431
-525 -370 2429
-520 -371 2430
-516 -371 2433
-511 -371 2436
-506 -371 2433
-501 -371 2433
-494 -370 2427
-489 -370 2428
-484 -369 2425
-479 -369 2425
-474 -369 2428
-469 -369 2426
-464 -369 2427
-459 -369 2429
-454 -369 2429
-449 -369 2428
-444 -369 2427
-439 -368 2426
-434 -368 2425
-429 -368 2426
-424 -368 2425
-418 -368 2423
-413 -367 2419
-408 -367 2420
-402 -367 2418
-397 -366 2418
-392 -366 2415
-387 -366 2416
-382 -366 2415
-377 -366 2417
-372 -366 2415
-368 -366 2417
-362 -366 2416
-358 -366 2419
-353 -366 2417
-348 -365 2416
-343 -365 2416
-337 -365 2412
-332 -364 2411
-327 -364 2408
-322 -364 2409
-317 -364 2408
-312 -364 2409
-307 -363 2407
-302 -363 2405
-297 -363 2403
-292 -362 2401
-287 -362 2400
-282 -362 2397
-277 -362 2398
-272 -362 2399
-267 -361 2396
-262 -361 2396
-257 -361 2397
-252 -361 2396
-247 -361 2395
-243 -361 2395
-238 -361 2396
-233 -361 2394
-228 -361 2395
-223 -361 2395
-218 -361 2394
-213 -361 2394
-209 -361 2395
-204 -360 2394
-199 -360 2392
-194 -360 2390
-189 -360 2389
-184 -359 2386
-179 -359 2386
-174 -359 2387
-170 -359 2386
-165 -359 2386
-160 -359 2387
-155 -359 2386
-150 -359 2385
-146 -359 2386
-141 -358 2384
-136 -358 2382
-131 -358 2380
-126 -358 2379
-121 -358 2379
-116 -357 2376
-112 -357 2378
-107 -357 2376
-102 -357 2375
-97 -357 2375
-93 -357 2377
