ply
format ascii 1.0
comment VCGLIB generated
element vertex 1573
property float x
property float y
property float z
element face 0
property list uchar int vertex_indices
end_header
-1575.023 -77.0293 -1995.102 
-757.0464 -497.3954 -1799.329 
840.4801 -1318.831 -1098.795 
-1433.57 -1212.905 -1607.074 
-1329.514 -938.14 -1815.109 
-522.9028 -1248.019 -1682.812 
-265.3326 -336.8764 -2292.953 
703.4352 -1293.928 -1593.527 
391.1362 -238.3917 -2228.962 
-490.2595 -952.5494 -2518.529 
18.73196 -795.8428 -1549.841 
-1215.619 -495.7383 -1490.316 
-1169.421 -898.8663 -2006.827 
-756.5167 -1249.885 -1208.563 
-521.9038 -829.9785 -2461.869 
-326.4334 -1252.234 -1857.375 
-1329.892 -392.4789 -1793.72 
118.7903 -1284.545 -1045.843 
401.7034 -1286.779 -1312.445 
-145.8564 -600.6157 -1927.994 
-840.3323 -1228.371 -2127.909 
-1094.658 -233.3492 -1930.504 
376.8397 -902.5449 -2246.019 
-2395.809 -1183.207 -2061.062 
-1308.184 -1247.527 -886.05 
-1019.703 -501.1013 -1894.226 
-1891.616 -1184.415 -2018.359 
275.7207 -1285.043 -1125.23 
-1835.335 -1209.358 -1530.067 
-422.1115 -1259.559 -1331.706 
-1011.682 -386.1282 -2058.976 
-875.3954 -440.7624 -2477.24 
92.52304 -506.2415 -2211.934 
282.2468 -814.8795 -1228.917 
-1871.995 -1204.055 -1523.635 
-1102.605 -232.4411 -1869.885 
1107.471 -1308.292 -1653.361 
-861.8762 -1232.873 -1950.939 
-360.1235 -1235.385 -2250.161 
-2139.117 -1189.656 -1725.514 
-1948.947 -1201.117 -1716.834 
-475.9561 -485.9816 -2019.235 
-734.2533 -498.9156 -2165.747 
119.1203 -574.4458 -1920.529 
-67.28613 -452.3907 -2504.535 
966.6832 -1290.322 -1992.826 
-1177.812 -1179.019 -2300.067 
-220.435 -1168.763 -2739.062 
-21.86273 -1260.008 -1859.983 
-1313.487 -708.0841 -1634.827 
-1334.886 -1184.399 -1975.99 
-709.0579 -464.2842 -2376.111 
-969.6981 -1235.346 -1407.523 
-1208.835 -1212.323 -1626.785 
250.6306 -251.6745 -2171.859 
-1006.391 -792.6533 -2172.769 
-1632.415 -1205.823 -1606.022 
-993.9587 -500.4338 -1894.898 
-12.72299 -793.752 -1323.848 
-327.1586 -1254.134 -1812.859 
-1359.539 -1142.371 -1757.239 
-707.5158 -1250.674 -1463.77 
-702.3829 -1248.775 -1510.025 
-794.5923 -1243.128 -1654.977 
-1258.692 -185.992 -1864.825 
-805.818 -1244.275 -1444.342 
293.377 -754.1631 -1243.518 
-1033.565 -1111.854 -2475.664 
169.0093 -1004.513 -2389.152 
-227.7178 -1258.179 -1698.125 
-313.8475 -1253.441 -1786.332 
830.4877 -1316.533 -1145.155 
290.4583 -1269.577 -1255.403 
-1048.327 -1243.623 -984.4399 
-408.5374 -582.9708 -1952.727 
-1204.658 -1231.814 -1191.94 
947.8876 -1302.599 -1622.008 
-1617.297 -1206.574 -1583.942 
-1579.554 -1232.712 -927.8101 
-1855.586 -1110.957 -2144.776 
-725.5752 -512.9808 -1759.238 
-1033.789 -1231.777 -1556.664 
-1000.585 -1160.396 -2527.705 
1268.997 -1302.454 -2320.073 
-1006.237 -1225.37 -2009.869 
-1300.579 -796.6317 -1759.789 
-15.40582 -1247.445 -1547.618 
-1436.843 -1218.621 -1426.673 
-855.5049 -992.8009 -2407.088 
-359.7798 -488.0557 -2391.891 
-1137.238 -1234.889 -1263.884 
1058.24 -1297.558 -2192.772 
-960.1121 -506.0508 -1857.854 
-1318.514 -877.4175 -1670.732 
-1321.089 -835.2997 -1737.772 
-406.2496 -175.8855 -2305.85 
-971.1711 -423.5942 -2168.214 
384.9458 -1282.88 -1545.635 
-1376.898 -1159.945 -1805.983 
-733.0839 -288.1397 -2348.404 
-95.896 -1222.092 -2683.133 
-1029.351 -1233.035 -1507.441 
-963.3736 -1236.748 -1450.482 
-851.438 -857.8629 -2300.241 
-362.426 -1254.716 -1664.664 
138.0061 -1283.988 -1113.137 
-910.4437 -482.3767 -2169.212 
-558.2892 -442.8274 -2618.1 
-1027.578 -1221.265 -1382.407 
-453.1086 -1212.811 -2589.519 
56.48304 -211.1024 -2278.886 
-464.7434 -1239.264 -2180.815 
-211.6843 -1237.294 -2641.604 
-1337.063 -1202.771 -1945.861 
-339.9219 -853.2589 -2443.42 
-82.44183 -1254.701 -1487.383 
-681.9921 -452.6944 -2530.595 
-157.4472 -519.2761 -2331.609 
-2234.131 -1182.171 -2089.419 
-1322.906 -816.0001 -1742.355 
-715.0796 -287.6174 -2813.961 
-192.0161 -1246.051 -1898.057 
-1394.07 -331.8687 -1764.103 
-1519.78 -1230.586 -1190.611 
-725.0602 -1251.291 -1221.663 
45.2431 -1218.134 -2661.74 
-1145.16 -476.7826 -1870.849 
-635.3312 -572.7249 -1906.767 
-691.31 -416.3876 -2808.906 
-194.6472 -456.8256 -2471.877 
1279.192 -1302.32 -2317.299 
-1295.009 -245.6907 -1837.035 
-325.3765 -1229.892 -2570.694 
-1328.205 -1035.894 -1671.113 
292.4834 -543.9843 -2101.017 
334.5469 -747.5819 -1291.055 
-1258.312 -486.4101 -1639.374 
-624.3992 -1246.953 -1654.427 
1300.871 -1305.529 -2415.904 
-21.66953 -796.2241 -1441.5 
5.367432 -798.1856 -1374.518 
-26.63361 -553.0963 -1911.416 
269.9514 -607.6957 -1225.498 
424.7156 -376.579 -2258.259 
-275.7993 -1264.058 -1325.562 
-1208.009 -1166.782 -2279.314 
-1538.43 -1234.105 -878.9861 
1096.747 -1310.994 -1759.189 
-871.3634 -1203.259 -2468.005 
-1687.775 -1222.591 -1220.349 
1119.095 -1313.717 -1617.898 
-55.27487 -799.8029 -1438.706 
-670.9249 -1219.192 -2392.852 
933.5375 -1288.579 -2133.551 
136.5301 -815.756 -2311.724 
286.8674 -823.7594 -1765.313 
-933.4426 -1237.004 -1505.382 
236.4761 -726.6793 -1795.441 
923.8872 -1321.163 -1104.376 
18.86841 -1267.594 -1701.622 
168.8203 -887.7102 -2322.256 
-804.5064 -96.00296 -2379.283 
-1017.51 -599.9022 -1466.421 
443.4795 -563.3797 -2167.838 
-1519.223 -323.5551 -1794.26 
-1777.722 -1213.077 -1478.181 
-1429.168 -1155.875 -2038.326 
-575.62 -868.1539 -2490.629 
-1502.315 -1208.806 -1674.239 
973.4725 -1296.809 -1947.511 
-224.5294 -951.6298 -2450.159 
-766.3799 -423.361 -2678.95 
409.8318 -350.0762 -2231.992 
-1413.034 -1019.588 -1895.1 
-903.8477 -1196.501 -2468.167 
-687.4003 -523.0106 -2090.196 
-31.62177 -36.14679 -2234.77 
-1308.075 -1223.594 -1442.455 
-1336.252 -1232.343 -1153.19 
-715.6622 -797.3931 -2452.934 
-17.04346 -80.71283 -2231.276 
-1069.464 -1233.205 -1286.857 
-662.3217 -1259.084 -1095.184 
-1893.541 -1188.763 -1841.752 
916.4329 -1305.574 -1578.72 
-297.0995 -876.4674 -2468.134 
-365.2233 -1258.603 -1473.049 
-1468.727 -1233.448 -1133.432 
-1015.818 -1189.871 -2451.49 
187.7056 -568.8705 -2063.406 
891.5578 -1284.589 -2305.596 
-731.421 -1119.617 -2541.923 
-712.8223 -1236.705 -1807.856 
627.2157 -1283.052 -1914.878 
-867.0399 -873.9716 -2299.457 
555.0833 -1289.361 -1697.777 
398.1129 -1286.062 -1245.886 
410.1838 -1286.959 -1463.606 
-511.6848 -1253.657 -1376.976 
-1359.626 -957.2145 -1813.94 
-1068.24 -1228.169 -1627.923 
56.87009 -1261.493 -1872.062 
923.4632 -1319.169 -1166.727 
385.3842 -352.0893 -2212.862 
-479.9749 -1253.273 -1505.803 
-1020.089 -1011.876 -2297.924 
-93.93005 -927.108 -2405.499 
-231.5621 -156.3693 -2265.752 
-2106.155 -1204.097 -1650.738 
472.9265 -1293.24 -1634.339 
-735.0491 -500.3593 -1817.444 
-1582.442 -1231.534 -1024.444 
-253.1313 -1244.555 -2132.853 
606.7969 -1303.877 -1145.534 
-395.2171 -1266.514 -1174.033 
429.1697 -614.5452 -2101.24 
-243.2275 -1246.655 -1920.011 
-38.24196 -504.1845 -1945.727 
-1128.447 -411.417 -1934.459 
-676.4416 -1250.235 -1357.79 
-329.3332 -479.9348 -2359.737 
-828.2951 -1145.664 -2593.547 
769.3505 -1303.914 -1426.104 
619.9064 -1300.569 -1217.88 
154.7393 -1280.115 -1296.662 
-105.6287 -951.2517 -2429.921 
-514.2852 -1244.497 -1830.471 
-936.4414 -477.854 -2028.458 
1139.176 -1302.798 -2013.55 
-1336.613 -414.844 -1467.182 
1067.413 -1308.369 -1684.494 
50.84999 -300.8 -2249.529 
-2071.314 -1178.957 -2161.253 
228.7933 -689.401 -1822.637 
-1304.18 -1213.634 -1922.479 
-742.9624 -1113.316 -2560.734 
-2105.287 -1189.203 -1941.646 
-1529.717 -1233.081 -933.0249 
1279.251 -1310.838 -2054.845 
324.365 -80.18954 -2260.504 
-1924.126 -1205.173 -1460.408 
433.9366 -1289.257 -1440.34 
1155.584 -1302.509 -2052.762 
-741.7247 -1246.24 -1666.334 
-445.023 -1256.911 -1465.138 
-1337.339 -914.6124 -1731.677 
678.1035 -1291.333 -1719.732 
104.1472 -720.2075 -2125.684 
-1016.391 -1099.615 -2471.372 
161.3274 -596.4426 -1880.861 
-613.4821 -1229.276 -2333.618 
-1003.574 -445.4224 -2329.247 
-107.5767 -1231.273 -2543.154 
-1643.693 -1195.322 -1756.696 
806.0507 -1284.522 -2074.695 
1184.999 -1290.02 -2485.905 
-724.9412 -821.5464 -2438.989 
140.7794 -489.1105 -2174.075 
-32.41898 -873.1912 -2398.235 
-323.5892 -70.47729 -2322.836 
-1376.292 -1245.746 -858.0369 
5.069977 -823.3412 -2375.123 
-1485.094 -1192.083 -1744.482 
353.6433 -1288.845 -1095.323 
-1077.637 -1228.394 -1744.103 
-675.9897 -514.649 -2113.931 
-734.9191 -1078.418 -2573.508 
-826.9028 -1218.671 -2308.455 
1217.404 -1327.813 -1431.936 
-231.8523 -1260.132 -1457.173 
72.77106 -468.8403 -2204.137 
806.823 -1276.981 -2326.755 
-1210.695 -481.2239 -1680.468 
145.5064 -579.3203 -1903.442 
-678.707 -432.9991 -2710.685 
-1051.436 -1212.78 -2248.451 
-1072.358 -1230.378 -1360.018 
3.719879 -784.5668 -1349.005 
-29.28851 -1239.317 -1509.587 
-772.4637 -990.3713 -2488.235 
523.1086 -1301.001 -1150.659 
-292.8955 -1277.683 -1078.673 
-796.4518 -412.2819 -2816.143 
-890.8107 -1239.19 -1511.094 
41.84467 -1282.462 -1172.909 
-1328.712 -1075.138 -1672.196 
-50.16162 -1280.848 -1084.928 
716.2177 -1293.323 -1586.949 
-1208.606 -1232.362 -1124.417 
-2047.732 -1178.241 -2155.668 
-744.3102 -356.8533 -2936.328 
-1147.822 -490.861 -1632.88 
-318.5074 -812.0028 -2429.784 
-693.831 -1257.896 -1079.705 
-524.9806 -1252.167 -1465.088 
373.0268 -960.7581 -2238.044 
-950.6908 -341.557 -2067.487 
-639.2713 -509.4952 -1994.816 
-466.6876 -1040.135 -2606.892 
434.0721 -921.8138 -2200.965 
-456.0585 -254.2751 -2297.692 
-2073.794 -1182.014 -2007.116 
-183.8049 -1237.69 -2494.508 
695.4187 -1305.579 -1251.938 
115.3933 -456.4382 -2176.277 
1037.668 -1301.11 -1927.053 
969.2777 -1322.267 -1189.187 
-413.457 -1250.173 -1742.779 
-48.21344 -1275.925 -1124.721 
-937.0654 -937.1855 -2265.32 
-66.80823 -1216.219 -2673.009 
32.88004 -221.5346 -2265.201 
401.9725 -554.3932 -2012.319 
84.25916 -114.5435 -2348.125 
-173.9422 -446.7162 -2502.738 
-341.4589 -477.8813 -2389.04 
772.6226 -1290.746 -1912.178 
-738.0624 -314.8253 -2849.762 
-1129.043 -1229.805 -1373.52 
-739.7557 -431.8574 -2780.89 
-850.1992 -198.8984 -2383.195 
-970.6465 -966.8517 -2269.218 
-730.6298 -1230.965 -2237.919 
-1437.24 -1225.3 -1313.174 
256.0901 -1239.994 -1251.699 
-1752.156 -1227.808 -869.8481 
-496.511 -119.5678 -2338.601 
-676.8793 -1259.87 -1056.625 
777.3537 -1282.656 -2096.271 
-1554.213 -1236.564 -696.2773 
76.97852 -184.0649 -2301.472 
-641.1215 -438.2288 -2648.643 
-720.4547 -1233.31 -1903.448 
-435.7496 -487.3302 -2046.007 
-303.9527 -1231.735 -2569.52 
-555.7168 -151.8201 -2358.572 
-713.7441 -315.9187 -2838.831 
-507.7095 -1246.112 -1740.435 
-1139.934 -1220.297 -2045.957 
-1310.917 -473.6102 -1525.547 
-382.3066 -490.4492 -2042.053 
-663.2882 -291.4014 -2799.614 
-1292.422 -908.4113 -1828.364 
-1902.745 -1186.479 -1978.988 
-2027.642 -1176.633 -2147.1 
-416.5278 -1222.115 -2512.07 
-439.4436 -1251.385 -1585.432 
334.6418 -348.6172 -2151.109 
-195.8474 -1262.755 -1456.795 
-410.7159 -1251.197 -1720.121 
-1084.786 -497.5952 -1600.149 
-680.0884 -426.3374 -2758.003 
180.294 -823.7088 -2305.551 
-1269.911 -1044.894 -2116.049 
939.0223 -1284.885 -2499.026 
-237.1048 -521.3315 -2309.229 
703.2433 -1302.363 -1394.667 
-323.0343 -1260.51 -1410.768 
-1889.332 -1192.33 -1810.561 
-1571.103 -266.1665 -1955.643 
-623.5623 -458.4859 -2521.759 
-921.5541 -1239.306 -1456.838 
-1375.181 -470.818 -1645.082 
-898.9132 -1220.239 -2278.086 
-716.9315 -470.6835 -2339.642 
173.3782 -795.0276 -1692.462 
-1359.402 -1199.74 -1826.64 
205.896 -1290.351 -1057.502 
-79.07422 -1232.685 -1738.583 
-690.562 -1250.699 -1432.579 
-210.5801 -349.735 -2328.519 
-986.548 -993.1193 -2289.115 
-88.78142 -191.8984 -2242.085 
-845.2408 -150.6867 -2268.579 
-156.5574 -118.3018 -2217.43 
193.5981 -1281.228 -1167.848 
-401.8048 -255.0543 -2295.428 
-1210.548 -1225.349 -1705.808 
-385.528 -1265.725 -1142.157 
-2197.489 -1190.838 -1838.93 
1125.366 -1325.513 -1249.667 
-693.816 -560.5016 -2014.237 
-991.9306 -540.8843 -1437.717 
311.4409 -1280.349 -1347.334 
-924.2607 -478.8429 -1642.859 
-792.2602 -491.0979 -1812.99 
482.8981 -408.5641 -1518.038 
-200.6589 -1259.667 -1594.427 
494.5374 -590.464 -2311.528 
-1150.723 -486.8916 -1686.501 
210.6446 -1289.533 -1099.544 
-716.2391 -1150.492 -2519.031 
-212.4917 -402.4008 -2385.533 
340.9411 -171.7926 -2194.363 
-1421.422 -1240.899 -777.3623 
308.046 -598.5836 -1258.496 
-576.1069 -553.7546 -1913.33 
-501.5603 -165.5204 -2333.489 
-1617.508 -1232.419 -945.5118 
1187.751 -1302.062 -2137.303 
586.5796 -1285.577 -1785.411 
-394.1186 -1220.2 -2539.364 
-220.8109 -1269.563 -1134.168 
-1335.332 -994.5228 -1702.881 
109.1255 -1143.533 -1470.205 
-327.9277 -1246.21 -2034.676 
-1148.181 -1228.458 -1422.326 
-121.6277 -1212.362 -1349.635 
130.428 -1284.56 -1049.299 
414.1318 -979.6471 -2218.462 
-320.7485 -474.5041 -2348.954 
-327.8898 -258.5193 -2295.25 
-1446.597 -1186.3 -2013.986 
-674.7151 -569.184 -1946.14 
-795.7549 -486.6757 -2130.032 
-382.779 -1237.784 -2306.704 
870.5761 -1277.77 -2510.078 
-2185.529 -1190.948 -1776.159 
-1185.879 -500.5947 -1487.175 
-707.3608 -543.8687 -1770.881 
212.2893 -820.8152 -1591.054 
1067.947 -1304.334 -1904.013 
-1179.09 -859.4493 -2038.924 
-832.7981 -1213.978 -2364.857 
-795.3538 -1231.238 -1980.079 
-781.2574 -429.8536 -2891.454 
-176.0155 -823.741 -2417.741 
821.5147 -1278.874 -2498.836 
-1402.162 -847.1625 -1702.364 
-390.9805 -1254.186 -1625.662 
-529.1548 -1262.335 -1055.203 
172.1625 -594.9201 -1934.954 
-1612.578 -1195.502 -1767.32 
264.301 -160.6388 -2181.729 
1137.602 -1291.511 -2410.995 
-731.8907 -818.9413 -2431.256 
-1325.553 -470.5446 -1564.555 
-1797.356 -1186.76 -1916.643 
309.9339 -1275.259 -1704.765 
-660.8701 -1250.395 -1452.635 
-1358.662 -1232.98 -1148.262 
-742.4321 -455.2718 -2376.384 
-321.0363 -1235.138 -2403.842 
-776.6948 -171.232 -2368.562 
-1441.842 -1120.555 -2094.644 
-1091.454 -403.1703 -2016.35 
-1757.252 -1208.574 -1568.522 
1097.096 -1317.127 -1530.481 
-1250.398 -903.8662 -1901.203 
-289.6909 -496.5767 -2111.216 
-492.0043 -1260.484 -1176.36 
-1641.304 -1212.874 -1431.994 
-128.8175 -503.3227 -2136.981 
-1325.785 -372.5493 -1793.457 
-830.9495 -148.89 -2301.838 
-1055.781 -1242.484 -1021.63 
465.4048 -426.3584 -1496.285 
-153.4084 -1259.841 -1665.17 
-320.117 -522.2948 -2002.08 
-766.1848 -502.3071 -2054.034 
1017.783 -1310.062 -1595.76 
22.05682 -1265.326 -1685.097 
196.1892 -253.9209 -2185.984 
-924.0503 -1235.148 -1842.325 
-785.9717 -1247.649 -1278.231 
184.6399 -594.1405 -2004.228 
-723.1675 -310.7786 -2838.652 
-1923.925 -1204.082 -1485.845 
-877.3259 -1235.01 -1843.698 
-190.6935 -1265.846 -1360.325 
-40.17657 -798.7778 -1467.75 
-1293.682 -1236.127 -1069.256 
73.30591 -557.0815 -1979.435 
864.2098 -1294.958 -1791.541 
-1030.714 -1230.357 -1779.32 
-314.1301 -1263.405 -1369.103 
1084.294 -1317.403 -1541.869 
-426.0189 -1244.645 -1960.386 
55.09901 -573.5127 -1939.632 
-696.5073 -298.115 -2846.635 
-779.4085 -1221.129 -2316.352 
-542.7178 -1248.683 -1753.077 
-330.9561 -522.0327 -2001.076 
-530.3223 -1234.65 -2225.948 
981.4279 -1303.902 -1647.813 
661.4344 -1287.805 -1856.739 
-1310.444 -1189.31 -1991.877 
-118.776 -563.0336 -1899.935 
242.8225 -1255.11 -1262.601 
764.4625 -1275.322 -2237.969 
-368.4552 -798.9738 -2457.795 
1099.943 -1327.377 -1272.839 
911.9628 -1305.78 -1539.342 
-45.88861 -94.23486 -2229.797 
-359.3612 -981.4818 -2527.213 
-474.7083 -1259.772 -1144.439 
-1052.495 -1184.252 -2430.799 
870.045 -1320.037 -1085.397 
-1148.658 -510.7766 -1470.902 
431.028 -557.1676 -2113.604 
-1322.904 -1220.204 -1491.754 
-604.1632 -449.4011 -2630.774 
-233.4892 -531.0072 -2014.711 
-1788.743 -1202.257 -1605.369 
-1305.772 -934.5056 -1832.268 
182.3626 -1121.99 -1444.536 
-229.9302 -1263.804 -1416.93 
-253.3457 -554.8545 -1966.911 
-1631.718 -1235.687 -733.537 
-568.2354 -1233.838 -2218.25 
-730.3557 -987.7526 -2523.162 
-462.9125 -1245.284 -1904.131 
331.0321 -500.8129 -1212.91 
-556.5142 -495.6573 -2373.563 
-812.2982 -1009.317 -2485.309 
575.2014 -1294.664 -1406.041 
834.2566 -1276.312 -2428.314 
991.7119 -1305.893 -1681.305 
-303.0153 -1237.746 -2284.438 
680.9839 -1295.133 -1554.727 
-788.3681 -1254.406 -1087.493 
-198.7937 -1242.068 -2357.755 
-333.5368 -854.0747 -2456.532 
-1702.17 -1216.025 -1410.517 
-503.8711 -339.628 -2544.409 
-1127.945 -1224.578 -1772.877 
934.1954 -1294.346 -2068.937 
-288.9569 -376.9044 -2332.629 
-203.1552 -956.9653 -2451.376 
-543.2618 -1259.771 -1144.439 
-1276.617 -1226.01 -1291.219 
-472.7888 -1256.628 -1290.592 
963.5677 -1319.375 -1291.316 
445.6867 -457.0823 -1565.479 
-964.2468 -308.0452 -2081.709 
-1982.214 -1190.776 -1842.043 
71.76398 -425.702 -2223.169 
389.4008 -629.734 -1633.529 
-1139.21 -878.0032 -2055.708 
-876.7325 -1230.834 -2133.778 
-399.5682 -580.3428 -1948.394 
-603.1241 -1170.456 -2555.283 
-499.6673 -484.4163 -2029.661 
-498.653 -1201.815 -2589.615 
-1395.998 -1217.632 -1549.713 
376.6726 -1278.391 -1633.675 
-1048.134 -967.4525 -2179.016 
-802.0284 -518.5812 -1634.173 
-804.0137 -420.1448 -2982.113 
777.0974 -1304.879 -1447.487 
1117.068 -1326.216 -1200.764 
-384.0542 -880.8192 -2478.313 
-148.1091 -1247.474 -1290.104 
-1329.355 -147.5938 -1886.2 
-1077.787 -1225.81 -1508.736 
-1856.048 -1197.161 -1780.78 
-1551.541 -1223.631 -1278.972 
-703.0247 -118.7974 -2813.128 
-765.5105 -1164.745 -2535.097 
-1250.956 -1234.595 -1105.368 
-1127.953 -979.295 -2100.149 
-197.4661 -1249.918 -1847.567 
-1181.207 -485.5448 -1874.34 
540.4693 -1295.44 -1263.565 
-1336.632 -408.3543 -1501.557 
-185.5613 -1246.419 -2096.959 
-165.6109 -44.06214 -2253.163 
-13.09821 -821.0432 -2357.704 
259.5992 -674.2214 -1248.104 
-1719.788 -1104.47 -1995.868 
-685.6523 -1220.321 -2384.652 
-513.2693 -1251.914 -1558.895 
1152.388 -1287.956 -2494.053 
87.6409 -1281.59 -1111.058 
-1479.705 -1219.811 -1506.927 
-1365.012 -1219.767 -1588.021 
-841.6755 -1228.551 -2107.444 
-1266.728 -1212.369 -1958.157 
-1077.286 -920.3039 -2104.461 
-1463.486 -1220.612 -1502.812 
-2171.434 -1190.481 -1789.354 
1278.368 -1301.341 -2290.784 
-1992.243 -1185.155 -2006.676 
87.25354 -1280.332 -1310.393 
-320.7315 -1233.181 -2644.519 
-1441.65 -1240.881 -1047.5 
-1120.089 -436.9577 -1957.819 
472.7952 -531.4767 -2393.387 
124.2026 -1283.193 -1222.138 
-1079.391 -1223.881 -1497.911 
-1041.29 -304.5579 -2093.475 
355.3877 -748.9819 -2111.38 
-835.7659 -183.5369 -2407.518 
-1676.324 -1201.249 -1724.165 
633.9554 -1293.247 -1558.125 
-1182.476 -1166.064 -2384.402 
-829.3375 -1005.71 -2461.08 
-1147.294 -1226.586 -1854.006 
-1336.242 -873.1854 -1768.316 
-864.292 -1202.5 -2477.121 
-1061.482 -1229.045 -1594.944 
-1088.212 -1228.778 -1714.169 
386.6245 -1282.688 -1534.199 
0.1005898 -138.2952 -2247.154 
-719.3314 -1095.371 -2542.101 
-391.0488 -1243.429 -2027.735 
-795.0082 -1178.312 -2531.104 
-859.3959 -1252.808 -1086.106 
-126.1429 -507.7122 -2349.149 
-583.7455 -1245.787 -1628.942 
-944.082 -402.7235 -2157.806 
137.0061 -828.688 -1581.501 
-188.4003 -1260.491 -1633.146 
-1001.736 -275.5402 -2146.233 
478.5419 -410.3111 -1452.887 
-717.1715 -1245.598 -1584.769 
-1434.519 -1149.536 -1872.036 
-938.8075 -477.5632 -1629.174 
350.5938 -907.0846 -2227.284 
411.0017 -548.0004 -2137.213 
-933.5305 -477.8773 -1618.983 
343.7737 -1287.334 -1090.422 
-1006.294 -435.8644 -2152.48 
-759.0916 -390.9799 -3014.424 
355.4616 -1281.585 -1544.074 
84.44629 -148.2349 -2310.759 
-19.2489 -810.8245 -2365.505 
1139.948 -1309.756 -1838.991 
69.40466 -804.1349 -2305.857 
-532.126 -1240.946 -2087.764 
-428.5247 -803.1534 -2461.672 
1049.209 -1322.205 -1330.095 
-1164.871 -490.111 -1550.97 
-213.2018 -1269.626 -1145.678 
-513.3148 -926.2184 -2508.471 
-1888.253 -1202.015 -1620.958 
51.11359 -1275.087 -1784.539 
-1182.562 -1229.496 -1428.655 
842.3972 -1299.863 -1532.366 
-620.5114 -1234.769 -2255.517 
-621.3615 -1241.976 -1838.541 
-1903.961 -1201.573 -1601.334 
-656.9637 -1215.65 -2427.342 
-306.1894 -362.3967 -2336.047 
-844.0325 -1249.759 -1220.893 
-981.8742 -1234.172 -1503.321 
813.2273 -1297.268 -1651.643 
432.8061 -484.2892 -1535.584 
-909.2305 -1105.151 -2564.852 
-25.35606 -489.5036 -2399.476 
-887.998 -1250.064 -1041.502 
140.0917 -529.0099 -2133.784 
-1076.257 -1091.878 -2387.181 
-472.5211 -1253.173 -1572.024 
9.651306 -847.2854 -2361.292 
-693.9621 -1237.771 -1756.67 
1034.15 -1295.77 -2158.708 
-635.3739 -1231.826 -2284.016 
-152.6523 -1234.553 -2454.573 
-1049.317 -1029.489 -2281.679 
-1341.591 -898.3023 -1794.229 
-1383.042 -259.1558 -1841.804 
-1270.139 -1216.909 -1762.73 
-1401.469 -1243.063 -851.1037 
-875.3756 -504.4698 -1950.161 
-164.2363 -515.2595 -2366.771 
-455.0569 -1256.021 -1474.364 
-1277.726 -475.8481 -1733.802 
-229.1729 -129.6759 -2246.746 
-1297.76 -1224.46 -1284.376 
472.9678 -418.0901 -1511.373 
832.3481 -1285.37 -2090.198 
-336.0983 -1261.762 -1369.312 
-419.1836 -1217.406 -2692.076 
621.5964 -1285.688 -1855.777 
-1232.161 -327.9097 -1813.076 
-222.6882 -1242.309 -2009.48 
-889.3131 -1237.106 -1821.032 
-1079.785 -1236.09 -1239.674 
-1383.829 -1219.371 -1556.206 
-1096.251 -1234.006 -1258.62 
-1234.306 -843.0282 -1933.528 
-573.884 -1246.972 -1623.172 
-1686.432 -1230.36 -896.3027 
230.4667 -45.70306 -2293.056 
714.4095 -1295.622 -1544.052 
138.3925 -868.3798 -2319.473 
-1764.728 -1222.23 -917.3622 
-232.7529 -60.83801 -2264.825 
733.6032 -1301.125 -1354.968 
-777.7874 -457.777 -2362.336 
-1078.898 -1060.323 -2325.718 
-2105.461 -1192.046 -1786.346 
-155.9011 -1268.84 -1254.674 
789.5609 -1307.029 -1385.046 
-1615.275 -307.434 -1893.658 
-755.712 -883.4288 -2407.272 
-211.0684 -446.4244 -2432.708 
-336.597 -236.1021 -2305.602 
-1274.749 -1227.825 -1320.723 
461.4051 -530.3309 -2371.709 
-877.1578 -798.6394 -2303.258 
559.6821 -1291.451 -1427.526 
-982.5426 -1225.864 -1988.314 
820.1709 -1299.206 -1531.591 
-818.4705 -1242.455 -1564.355 
-202.9712 -432.5875 -2453.417 
-2378.681 -1184.261 -1998.509 
208.3882 -1231.283 -2630.226 
110.7523 -875.8159 -2346.058 
-545.0616 -1244.421 -1855.051 
-992.5464 -1158.041 -2533.329 
-659.5518 -1239.355 -1874.653 
-249.1799 -220.6434 -2279.421 
1167.097 -1287.542 -2492.566 
-1950.399 -1194.483 -1782.577 
-1109.842 -499.6997 -1604.052 
-24.7301 -1264.272 -1407.423 
-122.3939 -1185.867 -2772.832 
-162.9503 -524.127 -2009.104 
-910.1847 -486.5437 -1539.451 
-205.3169 -1271.541 -1182.678 
-1254.54 -307.0711 -1800.213 
-1227.021 -1156.425 -2280.551 
1133.731 -1312.163 -1812.38 
471.8882 -1288.074 -1670.807 
-60.60425 -361.9901 -2284.003 
-721.9852 -1114.082 -2534.555 
374.272 -529.1376 -2205.967 
-746.3723 -432.1509 -2680.287 
-254.7488 -1245.512 -2010.356 
-1148.459 -1206.057 -2185.242 
-727.8098 -1233.027 -1854.699 
-349.4851 -1231.846 -2436.674 
41.59888 -816.2095 -2328.937 
241.3169 -106.6628 -2200.713 
-1472.719 -1217.978 -1422.137 
-1671.75 -1217.991 -1325.431 
67.34146 -839.5849 -2341.101 
-1457.154 -1238.564 -756.5488 
729.0569 -1291.472 -1746.211 
262.5847 -102.7167 -2208.032 
-1535.925 -295.6186 -1924.938 
-1095.759 -1208.742 -2226.988 
-1075.885 -320.5465 -1848.359 
389.2991 -556.2288 -2117.362 
-616.2554 -1244.48 -1736.092 
-959.5643 -471.3488 -2174.827 
-2060.714 -1177.507 -2149.711 
-1123.294 -421.6937 -2027.491 
-3.618546 -321.8129 -2225.656 
409.618 -543.3777 -2194.046 
1279.248 -1301.645 -2306.142 
-1099.587 -298.7368 -1896.211 
-1313.086 -1224.927 -1296.498 
-141.2185 -1237.638 -1288.854 
-247.6844 -868.1555 -2451.919 
-470.4551 -509.9824 -2400.025 
-335.2353 -1247.653 -2103.735 
-898.4792 -1228.059 -2002.616 
-1019.432 -420.7829 -2134.588 
-1508.865 -1234.636 -920.001 
-1436.033 -1232.22 -1160.869 
-637.015 -533.1492 -1987.73 
-746.5259 -239.3799 -2369.186 
896.8901 -1285.082 -2357.273 
-1257.329 -1249.817 -888.2542 
-124.5066 -513.9637 -2218.951 
442.7676 -464.925 -1483.255 
-368.8527 -1250.451 -1860.177 
-1212.726 -1209.288 -2038.451 
40.79257 -787.3311 -1337.443 
-1064.737 -402.9866 -2031.729 
117.8884 -1149.682 -1477.264 
-1202.119 -481.2746 -1878.094 
-645.752 -1192.985 -2472.798 
-1445.412 -1208.948 -1664.452 
-877.757 -483.7453 -1632.893 
-1443.909 -1231.674 -1186.972 
-1083.239 -1070.324 -2355.272 
1036.73 -1318.828 -1447.516 
-1093.422 -239.2828 -1920.385 
-743.7101 -311.7382 -2319.871 
-1044.977 -1227.796 -1704.915 
-1212.305 -1198.989 -2154.232 
-1098.586 -1225.187 -1547.172 
115.9617 -786.9068 -1337.807 
127.1486 -1169.578 -1487.025 
841.464 -1275.207 -2507.178 
-721.5894 -1125.155 -2529.646 
366.1497 -640.8596 -2057.179 
-150.8397 -1270.924 -1150.702 
1025.437 -1293.507 -2078.211 
-473.4156 -26.44403 -2365.071 
339.0898 -281.5091 -2179.239 
192.6756 -806.9528 -2300.768 
-641.2693 -1188.235 -2482.906 
840.1638 -1278.425 -2189.178 
-581.8115 -1197.678 -2523.601 
0.7718811 -937.4041 -2401.928 
-990.4117 -463.8397 -2106.867 
1002.431 -1304.704 -1642.731 
-290.5926 -1265.846 -1360.325 
-795.7056 -490.615 -1838.718 
1011.836 -1289.779 -2215.715 
-315.4724 -1257.44 -1512.2 
-711.5491 -181.6461 -2658.011 
-1432.992 -1237.846 -884.4011 
-672.3235 -482.5626 -2406.07 
-2034.941 -1191.519 -1944.556 
-546.9404 -1252.88 -1419.772 
159.5664 -1282.341 -1358.885 
-319.7958 -582.189 -1965.191 
-1033.987 -1227.373 -1685.069 
-1194.128 -222.5032 -1879.409 
407.5887 -1284.563 -1508.868 
-636.6417 -449.0664 -2577.244 
-1407.262 -392.4431 -1732.576 
166.7637 -145.259 -2217.287 
916.6296 -1291.932 -2036.899 
1073.558 -1318.558 -1473.075 
-1221.482 -1223.799 -1773.735 
-1177.763 -1246.344 -951.7082 
-843.5371 -481.6428 -2234.802 
-299.4207 -1263.832 -1353.405 
184.2378 -274.4155 -2198.993 
-240.9776 -1252.069 -1857.363 
220.8476 -111.1919 -2205.019 
-200.2061 -1140.664 -2709.118 
-963.0073 -401.8336 -2135.384 
48.69656 -1260.692 -1878.298 
543.1385 -1282.854 -1813.674 
-829.0511 -486.9601 -2208.071 
-662.4296 -987.0839 -2497.171 
25.51065 -794.0533 -1426.132 
57.15003 -132.2191 -2304.262 
-498.9949 -1246.462 -1786.34 
-252.7327 -1268.209 -1129.176 
-86.28624 -316.5745 -2228.16 
-587.6435 -1249.775 -1435.086 
-1410.177 -1192.693 -1929.633 
310.1486 -1284.566 -1404.943 
470.637 -1278.879 -1709.604 
-213.2954 -1264.062 -1417.115 
-1099.594 -1138.972 -2425.932 
-1354.396 -1126.017 -1683.701 
-209.74 -473.2359 -2420.57 
-1184.759 -482.3877 -1704.113 
-1076.283 -1221.875 -2035.569 
29.92725 -1260.703 -1828.977 
-1450.187 -1235.416 -877.4611 
-1032.955 -1244.613 -1010.008 
781.8956 -1299.663 -1504.768 
-983.1804 -452.65 -2218.644 
-1339.256 -1142.06 -1688.137 
-1402.779 -305.6703 -1802.376 
988.9413 -1287.131 -2290.272 
841.3091 -1286.923 -2054.898 
-1354.08 -1132.957 -1754.759 
-831.8226 -204.5011 -2875.886 
-1113.198 -1229.173 -1393.788 
449.8694 -1278.632 -1702.818 
886.7107 -1288.146 -1989.464 
-664.7371 -1238.237 -1887.548 
-451.8233 -1236.139 -2258.004 
-208.6016 -526.0208 -2024.844 
-722.0454 -1251.057 -1241.725 
332.0236 -243.0665 -2171.224 
-952.8115 -1237.036 -1704.397 
810.6599 -1293.5 -1867.439 
-8.921021 -365.8044 -2261.016 
700.2234 -1306.227 -1265.42 
1116.988 -1312.043 -1714.704 
-716.4185 -534.5055 -1755.238 
959.2675 -1321.635 -1233.43 
786.1641 -1305.253 -1453.043 
-582.3145 -1217.537 -2459.667 
18.55151 -510.4208 -1954.82 
2.07843 -1280.363 -1039.02 
-1968.091 -1188.045 -1972.328 
-1566.416 -166.9888 -1953.219 
-249.1106 -1256.605 -1685.012 
-1130.411 -1227.133 -1800.829 
-1.44162 -789.2255 -1364.835 
-522.7261 -1235.547 -2236.915 
-506.0703 -494.231 -2411.366 
-1028.129 -981.5952 -2225.327 
-1739.52 -1202.783 -1667.203 
-74.036 -310.0703 -2221.905 
-657.2771 -1234.371 -2186.596 
-784.9583 -343.1729 -2913.097 
-2113.659 -1186.321 -1957.673 
-1399.626 -1040.994 -1716.466 
1020.189 -1315.471 -1474.857 
-532.5013 -536.6252 -1974.724 
1209.664 -1327.538 -1299.304 
-1246.881 -375.468 -1792.75 
167.5319 -198.8981 -2201.309 
-1294.61 -1199.25 -1690.23 
311.5894 -145.6275 -2186.67 
589.0657 -1292.522 -1485.797 
310.8954 -530.8728 -1220.977 
-54.6062 -1273.591 -1250.776 
-241.6236 -142.1773 -2265.506 
147.4361 -1103.398 -1458.404 
-371.6909 -1246.836 -2122.272 
-415.9351 -776.0269 -2445.639 
-705.8173 -114.7194 -2824.387 
397.1841 -1294.498 -1050.49 
581.9444 -1299.807 -1217.165 
844.6394 -1279.901 -2339.049 
-426.4397 -1241.734 -2002.4 
1141.06 -1319.456 -1522.209 
-536.2484 -493.146 -2509.959 
-685.677 -505.3773 -2206.527 
-548.4609 -1247.286 -1668.482 
-646.0308 -430.8698 -2684.766 
132.49 -356.6325 -2162.622 
-867.9725 -440.8843 -2337.758 
185.9565 -893.541 -2313.48 
-1656.714 -1176.319 -1897.796 
-623.5264 -1261.113 -1082.467 
-730.8384 -520.1606 -1895.846 
1102.942 -1311.917 -1727.479 
-759.7224 -1225.998 -2269.231 
-970.2655 -1233.658 -1559.042 
-675.0547 -872.6221 -2463.952 
-777.1624 -228.0144 -2374.765 
-929.7145 -1243.236 -1276.993 
-1852.74 -1201.001 -1627.444 
-561.5226 -1141.574 -2633.789 
762.3821 -1284.588 -2026.249 
-612.2762 -1236.311 -2135.152 
-994.4885 -599.0873 -1476.668 
-184.7876 -1246.924 -2214.689 
-563.4536 -837.3007 -2480.63 
357.3329 -745.9602 -1368.342 
452.262 -564.8394 -2208.218 
-74.86346 -1266.411 -1588.63 
1092.672 -1318.122 -1520.67 
-440.8977 -1249.976 -1696.439 
357.8108 -1287.542 -1181.523 
-1561.756 -1235.791 -704.1697 
-640.9342 -1217.442 -2415.145 
-1234.992 -1236.144 -1083.839 
-1820.839 -1131.08 -2085.173 
74.15381 -838.9623 -2310.72 
-812.8793 -525.2056 -1620.121 
-985.0504 -456.928 -2191.318 
-1583.573 -1207.652 -1583.121 
796.9224 -1277.637 -2438.272 
-926.9453 -276.057 -2100.346 
1163.377 -1302.438 -2018.995 
-2088.216 -1187.032 -1973.193 
-140.0311 -457.1685 -2551.433 
-1094.478 -1230.2 -1880.142 
-2192.848 -1180.824 -2124.327 
194.7266 -425.8447 -2147.704 
-344.9177 -1229.298 -2509.268 
-1507.147 -1212.494 -1629.234 
-90.0307 -1178.292 -2781.014 
1273.091 -1317.294 -1965.354 
-612.4274 -1259.868 -1042.77 
408.8984 -1295.329 -1051.164 
296.2891 -826.7245 -1232.125 
-542.671 -1239.448 -2026.818 
-1357.56 -472.1586 -1722.149 
-477.2442 -508.9001 -2414.198 
-575.8962 -1260.791 -1153.088 
-234.6611 -1252.788 -1839.459 
-950.9324 -1178.04 -2517.343 
-1085.35 -1228.554 -1575.846 
-1167.091 -1155.749 -2376.678 
-161.6039 -74.09621 -2220.301 
-1337.478 -487.5469 -1400.525 
-392.7188 -1254.294 -1536.013 
-72.42523 -1267.536 -1310.852 
-1475.303 -1163.89 -1981.312 
-756.6945 -416.0856 -2597.138 
-479.8976 -1237.993 -2290.929 
-1699.037 -1196.423 -1814.446 
668.4109 -1301.176 -1350.32 
1074.57 -1325.291 -1164.347 
-923.2756 -1247.103 -1136.742 
1007.454 -1293.49 -2106.467 
-1097.719 -1194.975 -2360.102 
-20.1068 -171.015 -2227.631 
-759.0551 -1248.245 -1349.991 
-1035.469 -504.8637 -1840.553 
660.4702 -1304.593 -1169.369 
-1147.833 -393.6418 -1897.379 
-1828.101 -1207.976 -1551.224 
-669.9861 -520.6441 -2053.372 
325.6204 -355.2169 -2146.34 
-62.77362 -1269.686 -1313.075 
-578.2576 -1224.925 -2395.168 
1084.439 -1320.6 -1429.172 
-1521.761 -1225.738 -1235.416 
-1137.89 -404.5649 -1950.18 
-976.1519 -933.068 -2228.393 
-1605.72 -1225.161 -1281.745 
269.8799 -590.8312 -1244.715 
443.0072 -474.6707 -2383.79 
-1064.795 -1241.108 -1172.666 
-1413.111 -1226.074 -1355.151 
898.6243 -1297.987 -1728.594 
-605.1348 -368.6914 -2707.022 
-105.055 -552.822 -1940.514 
-1478.517 -1241.558 -991.2368 
-753.7399 -1254.597 -1080.454 
-1335.643 -471.0004 -1642.062 
143.7803 -857.3564 -1267.45 
897.7545 -1305.331 -1549.993 
186.4103 -846.4827 -1275.35 
-718.8477 -1249.014 -1495.836 
-358.7739 -1258.457 -1456.367 
-667.4731 -1102.476 -2513.487 
-229.9131 -516.8608 -2015.592 
-1064.618 -489.618 -1911.53 
-424.1655 -1264.53 -1103.587 
-1048.924 -500.1253 -1550.654 
-1861.337 -1210.086 -1410.763 
1271.216 -1306.448 -2140.081 
-869.536 -1234.284 -1894.23 
-694.2842 -1233.291 -2008.432 
426.5486 -1288.307 -1336.965 
-211.1107 -1262.041 -1435.268 
-912.0969 -1241.987 -1297.889 
380.7025 -612.569 -2067.74 
-1545.519 -1217.775 -1476.369 
-251.3974 -1235.958 -2561.638 
-180.582 -1226.18 -2665.436 
-419.1605 -533.8353 -1995.843 
1058.43 -1288.338 -2352.3 
-1696.996 -1206.752 -1621.39 
47.58746 -790.7351 -1454.626 
-1004.047 -452.3625 -2153.845 
2.180542 -1276.513 -1129 
-896.1884 -531.9647 -1479.726 
-194.218 -1240.743 -2389.801 
-334.15 -425.1156 -2431.579 
383.6723 -1286.223 -1473.268 
-1054.781 -305.4634 -2072.422 
-399.5148 -1251.037 -1719.415 
438.1625 -1294.732 -1115.018 
-422.3192 -993.5923 -2537.341 
-237.0034 -1236.022 -2510.054 
228.5175 -1244.922 -1310.052 
-1654.518 -1208.687 -1547.877 
-312.3281 -1230.563 -2545.112 
337.6729 -1286.782 -1138.083 
-1615.152 -1227.765 -1130.359 
291.5001 -1259.489 -1658.445 
-477.9431 -1253.823 -1400.753 
-1343.764 -860.7383 -1664.657 
-326.1902 -222.3806 -2313.046 
-739.0356 -457.2162 -2365.871 
-1182.51 -1241.605 -1032.11 
968.9384 -1294.248 -2089.572 
416.3164 -1294.359 -1137.172 
1165.565 -1315.579 -1650.309 
-1294.604 -1242.546 -1009.887 
-1113.496 -1246.451 -962.7537 
399.2809 -747.5729 -1486.346 
-1193.896 -487.5613 -1580.334 
-313.665 -1230.825 -2555.51 
-478.2477 -1248.848 -1638.451 
-860.3611 -1227.854 -2016.189 
-509.4097 -472.9666 -2555.892 
-672.6466 -1256.691 -1093.102 
-1277.887 -1250.065 -895.5177 
1128.818 -1303.439 -1959.413 
-1049.339 -305.45 -1978.276 
-1012.778 -1211.888 -2261.86 
-457.1628 -1258.279 -1305.804 
854.0134 -1278.771 -2412.181 
-1009.206 -1008.978 -2294.776 
-1302.028 -661.506 -1623.225 
354.7598 -913.0219 -2270.887 
-1434.596 -1161.762 -2031.956 
94.85773 -1281.93 -1263.282 
-941.5046 -1224.994 -2067.638 
410.9979 -550.076 -2123.449 
-702.8705 -297.2404 -2832.959 
-1299.368 -1232.047 -1166.11 
-1377.424 -1226.679 -1305.375 
-618.3606 -976.981 -2507.719 
-797.6161 -1126.196 -2605.25 
-1819.505 -1185.125 -1941.62 
373.0589 -270.2919 -2205.569 
-945.9133 -1219.86 -2224.843 
-352.7028 -881.9121 -2471.806 
1214.955 -1299.3 -2342.136 
1081.339 -1302.551 -1974.053 
-1056.194 -1241.236 -1166.86 
-1172.743 -227.7869 -1878.194 
-1174.696 -320.8462 -1849.372 
-1523.82 -1230.123 -1149.476 
-1153.13 -1227.966 -1647.777 
-266.2532 -97.18294 -2297.61 
62.30139 -336.9601 -2239.262 
-480.0387 -1238.344 -2190.536 
-656.955 -817.5793 -2433.741 
-258.1916 -1237.122 -2448.471 
1079.743 -1296.032 -2109.842 
-1287.257 -1190.114 -2093.146 
-861.4695 -487.511 -2054.158 
-930.8508 -486.3036 -2018.241 
-738.4449 -146.8793 -2822.75 
-227.3282 -1235.436 -2652.359 
-980.5978 -1229.907 -1892.559 
-862.8646 -535.3652 -1491.499 
-675.3204 -1259.063 -1045.544 
-390.2802 -1193.384 -2729.961 
-386.0085 -1265.891 -1251.757 
-574.2639 -493.4487 -1979.158 
-1976.468 -1183.592 -2011.386 
-2036.631 -1197.906 -1721.942 
612.3192 -1291.359 -1631.961 
921.4921 -1296.386 -1759.54 
376.9236 -885.3813 -2249.713 
-1436.362 -279.2593 -1862.117 
-353.3777 -362.4796 -2409.527 
796.2158 -1287.758 -1966.511 
-602.0191 -470.0836 -2553.267 
-571.4286 -1245.99 -1684.713 
-855.5869 -1174.835 -2562.189 
-722.8854 -354.2227 -2970.21 
272.0807 -1247.329 -1183.955 
-758.9497 -542.359 -1674.413 
-84.14575 -1229.849 -2775.817 
487.7285 -1276.36 -1842.693 
-219.9492 -1247.231 -2158.025 
-684.2675 -1245.501 -1674.568 
379.1804 -540.7938 -1643.834 
-141.1309 -483.6411 -2460.927 
806.8105 -1277.324 -2395.238 
-633.6914 -414.3013 -2700.833 
-779.3035 -536.0603 -1664.341 
279.2245 -634.302 -1239.938 
-666.3738 -1076.792 -2511.109 
949.0449 -1284.197 -2359.854 
-1123.543 -1225.005 -1911.043 
-1179.686 -350.6237 -1842.542 
987.2413 -1315.237 -1433.424 
-1619.922 -1211.929 -1511.827 
-1011.625 -1221.017 -2155.606 
28.97113 -1278.223 -1345.096 
225.1696 -36.39136 -2310.565 
1120.363 -1290.668 -2490.292 
-577.0272 -1239.649 -1956.621 
959.8885 -1317.84 -1348.781 
-1414.156 -295.6636 -1830.656 
-130.1404 -1263.468 -1517.725 
-701.7618 -173.6958 -2773.016 
-767.4232 -1228.811 -2140.706 
-1369.821 -390.3564 -1523.602 
-950.8676 -1234.82 -1723.789 
-822.505 -794.6285 -2309.088 
-1442.047 -104.5615 -1891.664 
-1254.74 -1208.084 -1559.135 
-1802.537 -1196.987 -1772.58 
-746.546 -436.6787 -2536.202 
-359.8026 -503.0962 -2262.966 
812.6196 -1290.953 -1910.574 
-720.2766 -455.165 -2457.684 
1056.179 -1322.65 -1217.833 
-12.1655 -892.6445 -2395.154 
122.5734 -915.7891 -2360.202 
-828.1179 -1206.807 -2436.295 
-306.412 -1230.212 -2536.151 
-1541.965 -1196.545 -1729.963 
-709.3845 -331.6893 -2900.053 
204.7578 -192.0315 -2192.031 
-263.5529 -345.4051 -2298.197 
712.8359 -1285.349 -2025.72 
-1211.971 -487.3959 -1512.582 
-170.9814 -1239.585 -2293.165 
-161.7556 -1264.333 -1474.975 
-1622.41 -213.4988 -1936.467 
413.1367 -356.2897 -2248.034 
-1204.75 -1212.41 -2006.079 
-100.9305 -502.8394 -2371.132 
-767.905 -263.8611 -2356.219 
1109.682 -1300.714 -2217.766 
-1365.757 -474.3577 -1716.612 
-923.9282 -1206.972 -2397.648 
405.676 -1287.894 -1438.817 
1038.862 -1301.921 -1870.33 
-163.6756 -522.5657 -2276.765 
-539.1754 -584.5665 -1934.856 
1108.75 -1306.297 -1911.254 
-1080.584 -1221.685 -1480.029 
793.4562 -1277.074 -2401.438 
-422.7959 -1188.621 -2714.461 
878.2758 -1311.825 -1366.111 
-275.4341 -937.4624 -2469.495 
-1116.986 -433.7428 -2023.401 
-672.2963 -1236.169 -2065.849 
-694.0021 -1245.092 -1668.886 
-448.0312 -440.9217 -2534.372 
-736.5488 -500.2452 -1839.722 
793.3019 -1291.424 -1786.653 
-1305.534 -828.2734 -1798.324 
-647.637 -553.3886 -1980.52 
-769.5847 -275.6345 -2801.906 
-2307.086 -1183.154 -2031.793 
-1072.554 -260.1029 -1921.61 
-6.367432 -797.0107 -1540.646 
-1377.161 -1230.028 -1158.236 
1190.501 -1300.291 -2254.961 
811.1741 -1279.688 -2474.714 
-749.879 -484.3828 -2221.545 
519.4741 -1282.924 -1754.611 
-1382.538 -1115.667 -1695.497 
-938.4372 -1236.012 -1533.435 
-842.8921 -1242.409 -1521.252 
-597.8809 -848.6064 -2485.869 
-180.9985 -1244.843 -1895.362 
-1410.75 -1236.717 -1091.682 
-736.0854 -1147.779 -2532.033 
-762.6306 -231.0211 -2363.475 
-285.6061 -1234.257 -2573.264 
-138.5001 -534.3275 -1983.734 
-1002.192 -1228.816 -1885.49 
-637.2087 -1250.612 -1392.215 
332.0001 -268.6942 -2173.147 
-2161.187 -1202.947 -1530.222 
-1301.632 -769.6682 -1635.727 
-1905.278 -1189.65 -1868.458 
-1270.977 -1138.234 -2216.659 
-506.0244 -1239.049 -2017.809 
-906.1448 -472.9025 -2241.907 
-53.01422 -1223.757 -2568.271 
125.9503 -1002.551 -2391.165 
224.8489 -591.5774 -2062.539 
-1030.94 -1229.507 -1768.13 
-101.0183 -1229.935 -2449.256 
-693.4617 -1257.916 -1020.803 
230.0315 -1242.514 -1354.166 
-327.6733 -1230.767 -2625.259 
778.0932 -1309.499 -1299.327 
-2237.184 -1191.774 -1837.306 
-1198.039 -1239.755 -1066.336 
1139.882 -1306.769 -1923.497 
190.8279 -1104.08 -1457.894 
-1551.998 -188.8998 -1956.358 
-1435.069 -1124.278 -2071.371 
626.8111 -1304.116 -1141.932 
951.5965 -1287.154 -2239.73 
-853.3214 -1240.74 -1620.696 
-988.4293 -473.5288 -1966.269 
289.0098 -1271.379 -1600.773 
-277.7705 -508.338 -2262.458 
353.3257 -829.3079 -2235.899 
-1025.001 -1240.093 -1238.94 
982.332 -1284.179 -2505.929 
-1182.344 -487.173 -1757.433 
869.4395 -1287.532 -2106.927 
-1455.016 -137.786 -1886.367 
-1315.325 -473.5341 -1649.212 
-449.8105 -166.4342 -2286.322 
626.6234 -1298.926 -1357.392 
-479.9574 -1242.336 -1982.375 
-1927.736 -1190.1 -1845.116 
619.348 -1304.488 -1101.302 
-1282.074 -1171.975 -2151.004 
-856.2209 -1214.037 -2400.435 
-1723.129 -1198.752 -1766.018 
-576.5841 -1162.644 -2594.129 
420.0212 -1289.257 -1440.34 
-1206.271 -284.0891 -1811.125 
-6.649414 -587.8691 -1873.646 
176.6503 -814.7799 -1405.454 
-751.1547 -1250.701 -1157.688 
208.7237 -1278.52 -1225.991 
-236.0544 -239.0457 -2255.189 
-641.7988 -1227.927 -2315.832 
-519.5084 -1238.756 -2013.633 
-1345.64 -1238.66 -973.9387 
503.7777 -1290.079 -1426.009 
-814.1146 -379.562 -2963.356 
-366.9788 -1262.259 -1361.242 
-1145.03 -405.2413 -1897.426 
-990.3788 -1245.108 -1082.935 
878.1025 -1288.38 -1984.067 
-1371.968 -182.5147 -1886.501 
332.5188 -609.0634 -2055.907 
364.5707 -951.1071 -2269.492 
-1539.961 -83.90186 -1997.301 
-717.1031 -542.7101 -1699.227 
-146.9616 -824.3344 -2398.074 
-298.6909 -898.0975 -2455.249 
217.9608 -809.7498 -1445.612 
-1657.937 -1171.39 -1906.526 
-458.8738 -1211.666 -2598.206 
-1025.272 -552.8513 -1416.517 
821.5017 -1313.266 -1307.545 
-994.0094 -1243.903 -1200.943 
-1030.009 -1184.71 -2467.184 
-1362.269 -1238.68 -1058.407 
-19.17233 -193.8418 -2230.352 
-1626.775 -1230.597 -938.3499 
436.2339 -1287.576 -1418.217 
-275.4518 -342.5911 -2301.05 
-755.0212 -845.6205 -2386.233 
-1461.568 -1213.238 -1618.645 
-146.7489 -53.64648 -2241.931 
-660.2752 -505.0303 -2143.684 
840.6639 -1314.596 -1235.185 
187.0266 -1281.455 -1367.479 
-1063.415 -504.8478 -1560.887 
-1494.838 -1225.669 -1276.719 
78.99341 -1248.017 -1689.221 
-1290.453 -1231.4 -1175.666 
-561.9313 -1250.146 -1459.547 
512.0077 -536.5024 -2446.116 
-501.6611 -1248.488 -1625.536 
-1016.37 -481.6535 -1547.856 
-184.4768 -565.4276 -1933.298 
327.2319 -591.8641 -2064.627 
-1495.446 -1231.318 -1204.355 
-1153.531 -494.7559 -1590.892 
-739.7695 -208.0563 -2805.427 
-566.1227 -1247.968 -1515.414 
1006.535 -1319.86 -1265.632 
-738.4426 -1135.17 -2539.462 
-469.5007 -1253.317 -1505.874 
-1291.161 -129.2134 -1901.332 
-2079.668 -1188.935 -1835.735 
-726.4763 -1250.383 -1458.164 
-931.5656 -1238.548 -1335.672 
-340.778 -1245.773 -2186.029 
-1082.029 -1241.278 -1036.103 
-847.6963 -792.1395 -2295.014 
-1506.205 -1214.69 -1511.395 
-995.5807 -388.8 -2080.308 
118.7212 -933.0797 -2358.429 
826.8717 -1279.368 -2357.108 
-1302.966 -154.7842 -1896.521 
110.8173 -886.2453 -2340.437 
-112.8271 -1239.049 -2323.188 
603.7925 -1299.068 -1324.979 
-1105.148 -1223.077 -2011.24 
-804.6729 -1248.458 -1284.851 
-417.4874 -445.381 -2541.266 
-1814.898 -1214.35 -1483.68 
-1169.581 -1176.385 -2335.726 
-175.5273 -431.8251 -2544.865 
73.23756 -287.7545 -2240.168 
-1004.903 -283.3712 -2126.231 
375.6173 -754.202 -1302.385 
-602.0056 -1247.433 -1513.283 
-665.293 -431.6903 -2708.368 
-1143.184 -1082.005 -2303.904 
-1285.425 -973.0942 -1930.81 
-947.3236 -806.4148 -2235.26 
-933.8282 -1235.11 -1791.409 
921.5004 -1290.07 -2109.597 
-798.5582 -1253.414 -1110.069 
21.99927 -1281.247 -1046.593 
-1910.466 -1189.257 -1840.294 
-798.4241 -431.2503 -2449.975 
1174.94 -1314.23 -1711.132 
-484.8716 -1232.921 -2378.339 
-835.0278 -482.9567 -2124.381 
-1257.496 -1060.772 -2147.116 
157.6355 -1281.151 -1334.168 
393.3755 -418.299 -1259.386 
270.7494 -1224.486 -2600.312 
1054.372 -1289.96 -2318.526 
-1483.692 -1196.98 -1735.125 
-1712.404 -1196.313 -1821.786 
10.87109 -793.5675 -1615.094 
433.271 -478.5023 -1647.293 
-1013.594 -1221.534 -2145.702 
239.2679 -1231.866 -1173.253 
964.8558 -1294.369 -1790.727 
944.5732 -1285.113 -2428.725 
957.9097 -1290.594 -1983.458 
762.6993 -1279.182 -2202.388 
-824.9036 -484.4491 -2117.723 
-441.946 -1255.941 -1496.721 
-706.405 -1059.279 -2539.546 
-88.90463 -932.0307 -2417.278 
376.7044 -440.7508 -2216.591 
-1213.623 -904.6675 -1944.157 
991.3966 -1286.039 -2359.03 
-1114.32 -1234.424 -1312.763 
-1167.1 -450.5464 -1916.357 
-738.7698 -507.9261 -1885.065 
36.36572 -101.6309 -2268.291 
-1023.185 -1221.343 -2082.727 
-1201.941 -1139.387 -2322.397 
364.853 -519.1392 -2200.98 
-1309.537 -1211.117 -1912.992 
7.848038 -446.5705 -2368.657 
-1261.5 -731.6838 -1628.572 
-1197.179 -1212.741 -1605.197 
-173.2861 -833.0474 -2407.878 
-1443.908 -1237.263 -967.0031 
-705.5285 -390.1994 -3002.319 
-1357.248 -1044.122 -1677.093 
-332.7629 -1230.965 -2657.199 
1155.646 -1304.535 -2107.018 
-1174.366 -473.4329 -1894.035 
-624.197 -1231.624 -2290.232 
-201.0192 -563.5173 -1933.108 
435.0157 -456.8982 -2345.556 
-768.6908 -234.8414 -2727.43 
-762.0533 -423.0203 -2669.078 
416.7917 -550.8308 -2111.467 
-652.1024 -1164.587 -2507.778 
1073.174 -1298.889 -2011.002 
-233.0293 -1260.306 -1658.683 
-939.0466 -1233.364 -1855.664 
-688.4934 -1255.51 -1312.022 
239.764 -477.2753 -2134.234 
78.39257 -155.4008 -2320.025 
893.6763 -1306.564 -1501.939 
-1470.704 -1095.373 -1924.091 
-198.3722 -1271.454 -1174.645 
1171.205 -1313.868 -1679.01 
-1641.332 -1217.704 -1372.227 
-1122.875 -506.1425 -1466.087 
-1179.553 -836.9769 -2008.614 
-455.3484 -599.684 -1973.565 
335.287 -418.2352 -2149.927 
-844.7976 -1241.173 -1654.138 
-288.5986 -1178.301 -2749.867 
-1047.326 -1162.768 -2507.827 
39.77002 -824.4574 -2338.414 
1116.544 -1291.043 -2480.921 
-524.4433 -547.8486 -1935.365 
730.3642 -1274.498 -2389.941 
158.6959 -789.188 -1705.421 
530.9423 -571.794 -2408.824 
249.0904 -810.7593 -1493.743 
-789.9977 -1244.956 -1520.597 
-103.7714 -1274.722 -1165.83 
-392.7827 -1242.742 -2037.756 
-902.884 -1237.896 -1728.236 
-1362.108 -378.629 -1536.078 
-785.0038 -483.1578 -2271.781 
14.80225 -1268.68 -1716.345 
-1320.995 -214.5882 -1865.32 
-288.5175 -966.4037 -2476.852 
-1256.219 -1230.522 -1381.168 
-631.1564 -577.6316 -1893.355 
-426.5766 -484.8096 -2462.345 
-637.0436 -910.6493 -2478.3 
-1026.805 -1232.82 -1567.633 
-1078.163 -1212.234 -2207.844 
130.5686 -93.0683 -2278.486 
-797.9052 -46.15994 -2371.294 
-1322.279 -447.3586 -1492.047 
-505.038 -497.6968 -2235.759 
777.8752 -1288.453 -1817.237 
-273.3701 -1268.588 -1148.587 
-898.8452 -1239.684 -1667.229 
-1956.436 -1186.585 -1988.564 
-1249.666 -1099.468 -2226.569 
-894.299 -1241.698 -1377.401 
456.3623 -440.9843 -1621.785 
-264.2334 -872.3905 -2445.43 
-430.4697 -1252.012 -1579.537 
355.8294 -600.4965 -1664.756 
262.8298 -808.3628 -1474.264 
-354.2206 -1247.907 -2120.067 
992.9755 -1285.775 -2443.476 
-765.061 -1248.659 -1471.395 
95.57724 -1281.766 -1348.825 
-1867.333 -1209.192 -1420.074 
-315.751 -1259.811 -1418.336 
-98.05727 -235.3305 -2214.567 
461.734 -568.6441 -2280.772 
-468.228 -1012.261 -2574.768 
-630.9663 -448.5105 -2586.233 
-555.0879 -1105.391 -2629.227 
-696.9775 -1245.679 -1557.43 
958.2593 -1284.839 -2463.646 
398.1208 -223.0875 -2244.438 
-57.58264 -1251.759 -1812.762 
-1033.172 -1244.22 -963.035 
322.2054 -122.688 -2213.305 
-1288.349 -1200.268 -2037.892 
364.8859 -590.2268 -2051.034 
132.356 -1256.364 -1813.824 
-1571.147 -318.9957 -1884.171 
968.8207 -1318.334 -1368.127 
-782.2705 -29.73538 -2376.706 
1062.486 -1290.449 -2422.571 
-861.6583 -1213.972 -2373.208 
121.2481 -1186.992 -2699.479 
-195.7801 -1260.843 -1603.53 
32.38843 -1280.551 -1155.537 
-802.9171 -486.9433 -2173.749 
1214.424 -1297.323 -2447.038 
-598.8898 -1241.378 -1902.601 
-30.69839 -570.4883 -1856.951 
-709.0858 -542.743 -1740.037 
-331.7869 -1021.354 -2554.569 
-103.8727 -1225.901 -2780.808 
-490.3977 -1203.43 -2597.636 
-874.9857 -1250.214 -1211.157 
-437.4215 -498.9559 -1993.454 
-1207.21 -355.4107 -1825.038 
-1392.564 -351.6917 -1730.736 
-1559.561 -1198.483 -1727.511 
484.4431 -1299.777 -1130.58 
185.9002 -892.1607 -1234.281 
-823.8506 -122.7512 -2281.413 
-1490.336 -1240.883 -989.6292 
-758.8715 -408.8018 -2960.561 
-1312.441 -926.8674 -1820.852 
38.32938 -579.6848 -1907.747 
772.3702 -1289.235 -1923.094 
-777.1437 -927.7552 -2409.972 
-847.759 -1082.09 -2568.595 
-227.8765 -1276.299 -1045.986 
344.5503 -1281.585 -1544.074 
530.0238 -524.5052 -2511.736 
-25.70676 -497.2269 -1939.458 
53.94079 -368.3578 -2253.768 
261.2137 -1232.23 -1201.91 
-1250.103 -485.0274 -1612.919 
-2090.669 -1203.666 -1646.928 
-873.0782 -781.5669 -2261.409 
13.33676 -927.1113 -2399.352 
-228.029 -1240.385 -2302.428 
-295.0266 -1251.583 -1749.517 
-107.5404 -1227.91 -2723.727 
-1783.121 -1203.539 -1594.735 
-2132.352 -1179.191 -2153.262 
-646.5857 -1033.404 -2510.234 
-69.47186 -1279.592 -1059.095 
923.678 -1283.701 -2284.169 
-621.7542 -502.9075 -2007.995 
1078.24 -1308.688 -1736.271 
-190.0596 -1262.628 -1319.46 
-1428.917 -1198.373 -2003.991 
-1540.01 -233.3972 -1966.516 
-1162.194 -1235.73 -1147.332 
-1896.123 -1209.084 -1391.634 
815.8818 -1312.728 -1352.888 
-755.0293 -1121.163 -2567.669 
-958.7647 -1210.133 -2334.503 
517.8777 -1294.772 -1648.466 
-330.9595 -1269.265 -1204.777 
-196.6532 -468.5684 -2461.944 
427.4625 -1286.656 -1358.703 
-433.5457 -1252.046 -1533.665 
-498.2436 -83.05719 -2342.572 
-2069.539 -1175.703 -2119.222 
-349.6367 -438.7775 -2482.157 
-507.479 -496.8647 -2298.51 
-1148.323 -1230.202 -1364.059 
841.7308 -1298.485 -1581.659 
232.0274 -1239.771 -1435.424 
-495.2552 -483.2758 -2499.942 
-153.9472 -459.6292 -2496.311 
-278.1721 -462.0366 -2330.391 
-668.3085 -1029.287 -2508.42 
158.4069 -1166.423 -2660.505 
-1141.689 -860.5081 -2079.817 
768.6812 -1273.584 -2476.602 
-1183.415 -1230.16 -1352.18 
-1444.18 -1153.133 -1890.786 
324.0103 -596.1756 -1746.542 
200.4337 -807.4394 -1305.375 
-306.133 -490.7219 -2305.242 
-1172.362 -437.5092 -1903.59 
-1032.736 -391.5683 -2039.449 
